ncols         183
nrows         104
xllcorner     629823,17944444
yllcorner     5180158,5011111
cellsize      100
NODATA_value  -9999
2857 2857 2856 2856 2856 2855 2855 2854 2853 2852 2851 2850 2849 2847 2846 2844 2842 2840 2838 2836 2833 2830 2827 2824 2820 2816 2812 2807 2802 2797 2791 2784 2777 2769 2760 2750 2739 2727 2713 2698 2680 2660 2636 2609 2583 2570 2528 2499 2485 2512 2535 2553 2568 2629 2744 2811 2845 2896 3002 3130 3258 3228 3217 3227 3315 3364 3297 3263 3236 3209 3190 3178 3170 3162 3164 3139 3114 3089 3082 3062 3038 3033 3017 2997 2974 2942 2913 2904 2892 2894 2917 2927 2930 2932 2940 2947 2954 2982 3008 3038 3051 3066 3072 3105 3156 3182 3226 3257 3317 3389 3358 3351 3362 3395 3380 3307 3215 3154 3109 3069 3042 2998 2949 2932 2928 2915 2880 2878 2924 2902 2932 2970 3018 2941 2884 2834 2763 2702 2672 2680 2725 2746 2800 2829 2820 2793 2738 2693 2650 2621 2591 2578 2539 2489 2447 2382 2333 2278 2241 2172 2145 2103 2049 2054 2028 2009 1978 1930 1867 1857 1891 1915 1926 1972 2053 2085 2102 2109 2111 2112 2111 2111 2111
2859 2859 2859 2859 2858 2858 2857 2857 2856 2855 2854 2853 2852 2850 2849 2847 2845 2843 2841 2839 2836 2833 2830 2827 2823 2819 2815 2810 2805 2800 2794 2787 2780 2772 2764 2754 2744 2732 2719 2705 2688 2670 2650 2624 2612 2640 2598 2555 2502 2527 2550 2566 2602 2625 2679 2778 2837 2958 3042 3141 3242 3210 3200 3199 3247 3338 3328 3278 3247 3215 3190 3174 3160 3145 3135 3114 3096 3079 3067 3039 3009 2973 2987 2956 2937 2935 2916 2902 2889 2868 2923 2913 2911 2908 2919 2926 2945 2970 3004 3033 3046 3055 3103 3145 3159 3201 3238 3308 3398 3312 3298 3280 3295 3327 3366 3281 3220 3194 3170 3115 3040 2990 2966 2929 2901 2887 2878 2864 2888 2859 2905 2914 2958 2925 2871 2822 2745 2678 2653 2672 2702 2698 2753 2779 2766 2729 2695 2662 2620 2601 2581 2544 2501 2443 2410 2355 2302 2255 2214 2142 2107 2087 2032 2002 1982 1963 1904 1865 1849 1901 1930 1980 2015 2021 2149 2165 2167 2159 2151 2144 2140 2138 2137
2862 2862 2862 2861 2861 2861 2860 2859 2858 2858 2857 2855 2854 2853 2851 2850 2848 2846 2844 2842 2839 2836 2833 2830 2826 2823 2818 2814 2809 2804 2798 2791 2785 2777 2769 2760 2750 2739 2727 2714 2700 2685 2669 2654 2658 2684 2688 2625 2571 2560 2552 2579 2624 2649 2675 2730 2811 2890 3024 3107 3210 3192 3175 3169 3182 3251 3293 3294 3256 3216 3189 3170 3151 3131 3113 3105 3080 3059 3010 2989 2938 2923 2926 2913 2898 2919 2921 2897 2880 2852 2913 2905 2897 2891 2892 2912 2954 2983 3023 3031 3053 3075 3082 3113 3153 3200 3263 3312 3391 3293 3274 3252 3232 3250 3295 3226 3185 3152 3123 3097 3054 2957 2928 2901 2874 2864 2853 2837 2851 2828 2860 2872 2888 2896 2856 2809 2736 2669 2631 2636 2654 2658 2708 2742 2730 2678 2643 2626 2601 2575 2561 2512 2453 2415 2370 2317 2279 2228 2182 2140 2106 2056 2002 1958 1938 1895 1863 1853 1873 1955 1997 2053 2028 2082 2159 2263 2249 2211 2189 2176 2168 2164 2162
2865 2865 2864 2864 2864 2863 2863 2862 2861 2860 2859 2858 2857 2856 2854 2853 2851 2849 2847 2845 2842 2840 2837 2833 2830 2826 2822 2818 2813 2808 2802 2796 2790 2782 2775 2766 2757 2747 2736 2725 2713 2701 2691 2685 2692 2714 2687 2655 2629 2613 2580 2631 2673 2671 2688 2702 2777 2846 2940 3084 3184 3154 3132 3140 3152 3181 3222 3318 3248 3209 3181 3160 3138 3114 3089 3080 3062 3031 2967 2935 2937 2923 2908 2886 2871 2853 2834 2836 2850 2839 2836 2911 2900 2887 2857 2909 2955 3020 3037 3041 3038 3047 3056 3093 3128 3161 3197 3306 3381 3291 3259 3228 3200 3195 3238 3191 3138 3112 3100 3064 3008 2958 2911 2879 2839 2832 2819 2816 2815 2791 2810 2846 2849 2839 2819 2785 2732 2660 2610 2605 2612 2611 2657 2699 2675 2634 2616 2590 2579 2554 2525 2474 2429 2392 2348 2305 2264 2212 2177 2135 2081 2009 1981 1935 1895 1865 1868 1900 1921 2030 2047 2091 2042 2143 2206 2277 2308 2248 2220 2204 2194 2189 2186
2868 2867 2867 2867 2867 2866 2866 2865 2864 2863 2862 2861 2860 2859 2857 2856 2854 2852 2850 2848 2846 2843 2840 2837 2834 2830 2826 2822 2818 2813 2807 2801 2795 2788 2781 2773 2765 2756 2747 2737 2727 2718 2710 2705 2704 2698 2671 2657 2648 2674 2696 2681 2707 2706 2712 2718 2752 2815 2942 3077 3113 3080 3072 3104 3120 3141 3168 3220 3246 3197 3170 3145 3125 3099 3071 3045 3035 3003 2942 2925 2917 2906 2893 2875 2852 2836 2812 2801 2815 2824 2804 2837 2926 2896 2861 2862 2936 3042 3030 2990 2980 3032 3029 3073 3121 3132 3184 3264 3347 3346 3273 3228 3180 3161 3165 3202 3131 3089 3072 3042 2988 2959 2921 2841 2827 2796 2783 2788 2779 2762 2755 2787 2817 2814 2804 2776 2725 2653 2604 2581 2590 2593 2612 2647 2643 2620 2604 2582 2556 2531 2479 2447 2406 2365 2365 2301 2256 2204 2164 2124 2022 1973 1950 1909 1882 1863 1900 1956 1971 2070 2129 2121 2142 2129 2223 2299 2286 2261 2241 2227 2217 2211 2208
2870 2870 2870 2870 2870 2869 2869 2868 2867 2866 2866 2865 2863 2862 2861 2859 2858 2856 2854 2852 2849 2847 2844 2841 2838 2835 2831 2827 2822 2818 2813 2807 2801 2795 2788 2781 2774 2766 2758 2749 2741 2734 2728 2723 2718 2709 2694 2680 2704 2739 2771 2729 2743 2738 2736 2747 2751 2813 2935 3014 3073 3051 3057 3078 3097 3125 3148 3194 3253 3189 3156 3128 3109 3090 3072 3050 3028 3002 2971 2946 2929 2913 2898 2876 2851 2834 2808 2799 2791 2795 2790 2786 2844 2909 2866 2849 2923 3067 3040 2982 2962 2987 3016 3066 3081 3123 3219 3317 3410 3400 3346 3289 3178 3128 3131 3145 3107 3047 3022 3006 2957 2938 2899 2864 2811 2784 2755 2749 2741 2732 2708 2735 2771 2761 2745 2728 2704 2652 2607 2580 2566 2577 2581 2602 2617 2595 2575 2553 2528 2506 2463 2419 2379 2389 2346 2281 2232 2187 2148 2071 2001 1951 1909 1891 1872 1875 1919 1991 2029 2132 2180 2214 2201 2204 2198 2258 2274 2268 2256 2245 2237 2232 2229
2874 2873 2873 2873 2873 2872 2872 2871 2870 2870 2869 2868 2867 2865 2864 2863 2861 2859 2857 2855 2853 2851 2848 2845 2842 2839 2836 2832 2828 2823 2818 2813 2808 2802 2796 2790 2783 2776 2769 2762 2756 2749 2744 2740 2736 2733 2732 2747 2774 2789 2804 2765 2770 2760 2753 2759 2758 2780 2895 3012 3051 3047 3050 3061 3073 3108 3129 3194 3299 3194 3152 3125 3106 3092 3072 3054 3037 3017 2992 2968 2948 2930 2911 2888 2865 2845 2819 2794 2793 2771 2779 2761 2787 2830 2857 2842 2912 3020 3012 2942 2950 2980 3011 3021 3057 3143 3207 3309 3384 3332 3289 3258 3153 3099 3106 3107 3113 3042 3000 2983 2966 2924 2921 2900 2847 2786 2747 2723 2706 2694 2675 2681 2726 2724 2704 2685 2660 2642 2606 2568 2525 2529 2544 2564 2574 2562 2548 2527 2508 2486 2452 2412 2395 2362 2320 2270 2209 2159 2118 2062 2004 1954 1901 1877 1871 1918 1952 2029 2077 2197 2261 2267 2258 2249 2250 2269 2279 2278 2270 2262 2255 2250 2247
2877 2877 2876 2876 2876 2875 2875 2874 2874 2873 2872 2871 2870 2869 2868 2866 2865 2863 2861 2859 2857 2855 2853 2850 2847 2844 2841 2837 2833 2829 2825 2820 2815 2810 2804 2798 2793 2787 2781 2775 2769 2765 2761 2758 2756 2757 2764 2784 2820 2839 2791 2787 2780 2770 2760 2766 2765 2781 2930 3069 3037 3033 3035 3046 3059 3091 3111 3169 3265 3190 3161 3132 3105 3093 3077 3060 3041 3020 3001 2983 2967 2950 2931 2906 2882 2868 2847 2821 2791 2781 2753 2743 2750 2794 2833 2828 2917 2957 2963 2924 2930 2970 2993 3017 3073 3120 3196 3284 3341 3255 3223 3224 3145 3093 3092 3076 3080 3045 3003 2994 2966 2961 2969 2956 2890 2801 2753 2713 2687 2655 2635 2638 2677 2669 2658 2644 2633 2620 2604 2569 2526 2480 2500 2527 2531 2521 2507 2495 2487 2468 2436 2398 2366 2352 2320 2266 2191 2146 2103 2061 2003 1953 1901 1880 1886 1932 1995 2057 2118 2227 2310 2330 2301 2291 2293 2297 2297 2292 2285 2278 2271 2267 2264
2880 2880 2880 2879 2879 2879 2878 2878 2877 2876 2876 2875 2874 2873 2871 2870 2869 2867 2865 2864 2862 2859 2857 2855 2852 2849 2846 2843 2839 2835 2831 2827 2822 2818 2813 2808 2802 2797 2792 2787 2783 2779 2776 2775 2775 2777 2785 2800 2820 2819 2801 2797 2789 2775 2768 2771 2772 2790 3007 3055 3008 3015 3024 3037 3052 3086 3114 3157 3223 3197 3181 3148 3111 3093 3078 3062 3045 3027 3009 2995 2982 2963 2941 2913 2895 2883 2874 2863 2826 2787 2770 2739 2723 2735 2762 2821 2909 2928 2906 2903 2905 2955 2996 3034 3065 3110 3186 3265 3314 3229 3168 3158 3083 3080 3067 3059 3067 3018 3003 3038 3008 2988 2967 2943 2878 2798 2752 2721 2672 2631 2606 2587 2616 2634 2619 2600 2580 2556 2532 2513 2491 2435 2438 2486 2490 2476 2469 2468 2452 2432 2397 2366 2346 2333 2276 2232 2183 2131 2098 2052 1979 1934 1893 1879 1902 1961 2029 2077 2161 2236 2319 2346 2334 2342 2339 2330 2319 2309 2300 2292 2286 2282 2279
2883 2883 2883 2883 2882 2882 2882 2881 2881 2880 2879 2878 2877 2876 2875 2874 2873 2871 2870 2868 2866 2864 2862 2859 2857 2854 2851 2848 2845 2842 2838 2834 2830 2826 2821 2817 2812 2808 2804 2800 2796 2793 2791 2791 2791 2794 2799 2807 2814 2812 2810 2805 2796 2789 2784 2782 2782 2811 3039 3010 2988 2999 3012 3028 3035 3077 3131 3170 3186 3232 3222 3190 3136 3102 3087 3066 3050 3034 3017 3003 2990 2975 2951 2917 2897 2878 2869 2861 2857 2812 2767 2736 2718 2718 2750 2812 2863 2913 2913 2884 2890 2928 2961 2982 3024 3074 3178 3233 3290 3224 3167 3129 3072 3039 3045 3041 3024 2990 2980 2990 3013 2984 2953 2904 2846 2807 2766 2724 2662 2634 2584 2542 2559 2570 2553 2532 2498 2485 2472 2457 2441 2393 2384 2433 2434 2427 2420 2416 2408 2393 2351 2331 2315 2287 2241 2211 2150 2095 2055 2015 1950 1897 1889 1870 1911 1990 2052 2127 2187 2243 2331 2352 2368 2393 2400 2366 2342 2326 2315 2306 2299 2295 2292
2887 2887 2886 2886 2886 2886 2885 2885 2884 2883 2883 2882 2881 2880 2879 2878 2877 2875 2874 2872 2871 2869 2867 2865 2862 2860 2857 2854 2851 2848 2845 2841 2838 2834 2830 2826 2822 2819 2815 2812 2809 2807 2806 2805 2806 2808 2811 2814 2816 2818 2813 2808 2804 2804 2801 2793 2792 2879 2968 2961 2977 2986 2997 3010 3020 3059 3141 3188 3215 3269 3274 3237 3195 3148 3108 3078 3053 3035 3020 3009 3005 2996 2990 3005 2929 2886 2861 2842 2825 2805 2762 2739 2706 2708 2739 2810 2833 2866 2889 2885 2882 2920 2966 2978 3025 3065 3137 3218 3259 3209 3137 3087 3029 3017 3009 2996 2971 2985 2961 2928 2947 2955 2910 2866 2839 2786 2751 2696 2652 2602 2553 2521 2488 2511 2493 2458 2428 2421 2415 2399 2384 2329 2340 2375 2373 2369 2361 2355 2352 2349 2308 2273 2274 2248 2216 2165 2109 2068 2025 1970 1917 1904 1873 1904 1957 2021 2072 2125 2225 2287 2341 2373 2399 2442 2446 2390 2359 2340 2327 2318 2311 2306 2304
2890 2890 2890 2890 2889 2889 2889 2888 2888 2887 2887 2886 2885 2884 2883 2882 2881 2880 2878 2877 2875 2874 2872 2870 2868 2865 2863 2861 2858 2855 2852 2849 2846 2842 2839 2836 2832 2829 2826 2824 2822 2820 2819 2819 2820 2822 2823 2822 2818 2816 2812 2808 2813 2816 2814 2805 2808 2865 2887 2938 2974 2982 2989 3004 3018 3099 3178 3216 3230 3296 3336 3266 3229 3202 3178 3119 3092 3073 3047 3030 3036 3043 3078 3067 3013 2939 2866 2844 2819 2796 2760 2732 2695 2694 2731 2763 2795 2807 2834 2878 2883 2911 2961 2963 3008 3066 3133 3209 3230 3185 3117 3059 3013 2979 2981 2954 2924 2889 2896 2876 2879 2893 2892 2826 2771 2741 2700 2643 2592 2549 2504 2461 2414 2440 2431 2409 2383 2371 2359 2348 2330 2301 2305 2304 2300 2290 2289 2277 2279 2272 2254 2230 2231 2199 2165 2109 2069 2026 1984 1934 1897 1888 1895 1917 1961 2044 2102 2155 2235 2284 2359 2403 2436 2447 2421 2392 2367 2349 2337 2327 2321 2316 2313
2894 2894 2893 2893 2893 2893 2892 2892 2892 2891 2890 2890 2889 2888 2887 2886 2885 2884 2883 2882 2880 2879 2877 2875 2873 2871 2869 2867 2865 2862 2859 2857 2854 2851 2848 2845 2842 2840 2837 2835 2834 2833 2832 2833 2834 2836 2839 2837 2825 2817 2814 2814 2823 2825 2823 2812 2830 2889 2923 2943 2965 2978 2990 3005 3033 3098 3187 3241 3269 3355 3399 3331 3298 3284 3271 3193 3205 3169 3171 3130 3105 3124 3144 3141 3073 2981 2918 2869 2824 2791 2749 2726 2695 2684 2718 2725 2756 2800 2800 2856 2870 2914 2926 2965 2999 3066 3158 3223 3202 3143 3107 3029 2992 2978 2954 2920 2888 2852 2837 2836 2821 2822 2828 2779 2731 2701 2630 2578 2530 2493 2460 2423 2386 2372 2362 2341 2321 2308 2300 2294 2279 2267 2245 2235 2217 2207 2199 2194 2190 2198 2200 2190 2166 2134 2117 2080 2040 1996 1944 1913 1885 1891 1908 1929 1996 2064 2155 2212 2242 2303 2383 2423 2441 2425 2408 2388 2370 2355 2343 2335 2328 2324 2321
2897 2897 2897 2897 2897 2896 2896 2896 2895 2895 2894 2894 2893 2892 2892 2891 2890 2889 2888 2886 2885 2884 2882 2881 2879 2877 2875 2873 2871 2869 2867 2865 2862 2860 2857 2855 2852 2850 2848 2847 2845 2845 2845 2845 2847 2851 2857 2876 2853 2839 2833 2833 2835 2833 2828 2818 2859 2895 2911 2939 2964 2978 2992 3014 3061 3159 3264 3299 3354 3413 3339 3262 3213 3183 3185 3227 3282 3289 3253 3170 3166 3196 3206 3179 3108 3018 2919 2866 2851 2811 2754 2734 2703 2683 2699 2733 2726 2761 2773 2808 2852 2894 2932 2957 3001 3076 3135 3194 3179 3119 3082 3010 2975 2961 2936 2921 2862 2821 2803 2779 2762 2733 2763 2733 2686 2619 2566 2525 2480 2438 2402 2373 2347 2300 2302 2279 2263 2244 2234 2223 2226 2211 2174 2172 2162 2148 2137 2132 2131 2126 2145 2134 2094 2092 2079 2046 1999 1965 1911 1889 1904 1925 1943 1958 2031 2110 2170 2241 2280 2323 2390 2423 2420 2410 2397 2383 2370 2357 2348 2340 2334 2330 2328
2901 2901 2901 2901 2900 2900 2900 2900 2899 2899 2898 2898 2897 2897 2896 2895 2894 2893 2892 2891 2890 2889 2888 2886 2885 2883 2882 2880 2878 2876 2874 2872 2870 2868 2866 2864 2862 2860 2859 2858 2857 2856 2856 2857 2860 2863 2870 2880 2885 2872 2856 2853 2847 2842 2835 2836 2875 2896 2922 2952 2975 2990 3006 3037 3116 3233 3325 3393 3423 3389 3342 3281 3188 3157 3135 3134 3141 3203 3239 3223 3230 3265 3271 3188 3094 3017 2945 2891 2855 2824 2775 2732 2711 2682 2671 2708 2718 2729 2773 2768 2822 2868 2904 2941 3006 3058 3083 3143 3160 3115 3065 3003 2970 2938 2940 2906 2843 2815 2773 2712 2681 2656 2689 2681 2613 2563 2519 2475 2431 2391 2359 2330 2302 2270 2249 2225 2196 2181 2175 2167 2174 2163 2145 2109 2095 2083 2074 2072 2068 2073 2077 2058 2050 2027 2014 1988 1955 1928 1890 1914 1920 1959 1993 1982 2049 2121 2205 2264 2305 2329 2385 2399 2402 2397 2388 2378 2368 2358 2350 2343 2338 2334 2332
2905 2905 2904 2904 2904 2904 2904 2903 2903 2903 2902 2902 2901 2901 2900 2900 2899 2898 2897 2896 2895 2894 2893 2892 2891 2890 2888 2887 2885 2884 2882 2880 2879 2877 2875 2874 2872 2871 2869 2868 2868 2867 2868 2869 2871 2874 2878 2883 2887 2883 2874 2865 2857 2853 2844 2862 2899 2923 2949 2973 2989 3013 3037 3079 3157 3262 3335 3440 3419 3367 3344 3315 3205 3141 3116 3097 3085 3103 3150 3193 3251 3219 3245 3165 3094 3018 2963 2926 2853 2827 2771 2732 2711 2694 2664 2664 2688 2709 2740 2739 2781 2816 2875 2924 2967 3012 3043 3094 3147 3105 3051 3008 2958 2930 2916 2899 2886 2822 2785 2719 2679 2599 2604 2595 2549 2513 2472 2432 2382 2345 2316 2292 2264 2247 2207 2193 2167 2146 2131 2128 2127 2108 2093 2074 2046 2026 2020 2017 2018 1999 2019 2015 2004 1986 1963 1946 1931 1927 1904 1899 1949 1987 1993 2025 2097 2141 2210 2286 2309 2331 2372 2387 2390 2387 2381 2373 2365 2357 2350 2345 2340 2337 2335
2908 2908 2908 2908 2908 2908 2908 2907 2907 2907 2906 2906 2906 2905 2905 2904 2904 2903 2902 2902 2901 2900 2899 2898 2897 2896 2895 2894 2892 2891 2890 2888 2887 2886 2884 2883 2882 2881 2880 2879 2878 2878 2878 2879 2881 2883 2886 2888 2888 2883 2876 2870 2866 2864 2865 2921 2978 2983 3006 3029 3053 3061 3090 3139 3222 3301 3389 3464 3438 3343 3327 3292 3238 3141 3104 3083 3066 3050 3070 3119 3128 3127 3176 3215 3143 3094 3043 2956 2891 2825 2787 2732 2705 2692 2663 2640 2649 2676 2707 2728 2726 2767 2841 2888 2928 2966 3008 3051 3104 3110 3041 3019 2973 2923 2906 2880 2854 2802 2765 2713 2664 2606 2503 2542 2508 2472 2431 2383 2342 2317 2296 2266 2228 2188 2175 2130 2134 2100 2085 2074 2065 2052 2036 2020 2016 2000 1966 1945 1952 1992 1921 1959 1938 1943 1937 1933 1900 1920 1931 1935 1937 2004 2030 2066 2118 2154 2219 2283 2305 2345 2386 2385 2384 2381 2375 2368 2362 2355 2350 2345 2341 2339 2337
2912 2912 2912 2912 2912 2912 2912 2911 2911 2911 2911 2910 2910 2910 2909 2909 2908 2908 2907 2907 2906 2905 2905 2904 2903 2902 2901 2901 2900 2899 2898 2897 2895 2894 2893 2892 2891 2891 2890 2889 2889 2889 2889 2889 2890 2891 2894 2897 2894 2886 2878 2873 2872 2880 2901 2989 3046 3070 3094 3097 3101 3120 3148 3207 3290 3365 3435 3451 3422 3332 3297 3275 3237 3171 3105 3078 3054 3035 3026 3035 3053 3060 3080 3187 3187 3139 3075 2992 2907 2853 2801 2766 2724 2669 2638 2628 2631 2648 2678 2704 2706 2723 2775 2843 2870 2904 2964 2997 3038 3065 3045 2990 2952 2916 2884 2852 2822 2778 2732 2667 2610 2559 2508 2471 2466 2433 2393 2347 2312 2294 2275 2232 2193 2148 2117 2082 2073 2059 2050 2039 2032 2018 2010 2006 1989 1957 2001 1998 1993 1987 1978 1973 1968 1958 1945 1939 1933 1939 1965 1969 1929 2001 2033 2078 2140 2166 2212 2258 2303 2342 2383 2387 2382 2376 2369 2364 2358 2353 2348 2344 2341 2339 2338
2916 2916 2916 2916 2916 2916 2916 2915 2915 2915 2915 2915 2914 2914 2914 2913 2913 2913 2912 2912 2911 2911 2910 2910 2909 2909 2908 2908 2907 2906 2905 2905 2904 2903 2902 2902 2901 2900 2900 2899 2899 2899 2899 2899 2899 2900 2901 2903 2900 2893 2886 2880 2876 2887 2932 3056 3095 3082 3142 3187 3201 3212 3220 3293 3343 3364 3398 3420 3435 3321 3274 3251 3227 3186 3128 3086 3051 3032 3021 3008 3004 3026 3022 3062 3114 3148 3100 3012 2951 2906 2835 2795 2750 2692 2635 2614 2613 2621 2648 2676 2687 2697 2730 2786 2813 2840 2910 2930 2965 2981 2965 2931 2898 2883 2848 2811 2783 2751 2689 2615 2549 2508 2469 2428 2422 2390 2351 2323 2295 2251 2222 2197 2160 2117 2082 2058 2045 2028 2024 2015 2004 1996 2007 2016 2015 2008 2008 2003 2011 2004 1993 1981 1984 1985 1982 1968 1971 1987 1995 1992 1989 1914 2025 2069 2139 2165 2215 2263 2314 2351 2407 2395 2379 2370 2364 2358 2354 2349 2346 2343 2340 2339 2338
2920 2920 2920 2920 2920 2920 2920 2919 2919 2919 2919 2919 2919 2919 2918 2918 2918 2918 2917 2917 2917 2917 2916 2916 2916 2915 2915 2914 2914 2914 2913 2913 2912 2912 2912 2911 2911 2910 2910 2910 2909 2909 2909 2908 2908 2907 2907 2906 2904 2903 2903 2902 2896 2926 2990 3012 3033 3057 3101 3204 3273 3310 3312 3272 3293 3316 3346 3372 3383 3295 3260 3230 3207 3177 3139 3089 3047 3029 3019 3004 2988 2982 2999 3003 3045 3048 3058 3008 2953 2895 2836 2784 2770 2709 2649 2606 2596 2600 2620 2647 2663 2670 2688 2746 2767 2783 2827 2870 2897 2922 2922 2887 2859 2853 2805 2774 2745 2697 2622 2563 2511 2469 2424 2389 2345 2325 2316 2290 2261 2221 2174 2143 2101 2067 2051 2034 2023 2007 2018 2027 2032 2026 2035 2037 2029 2026 2044 2043 2057 2038 2028 2022 2021 2029 2024 2021 2042 2054 2028 2024 2010 1940 1959 2068 2118 2161 2201 2265 2314 2357 2397 2385 2371 2363 2357 2353 2349 2346 2343 2341 2339 2337 2337
2924 2924 2924 2924 2924 2924 2924 2924 2923 2923 2923 2923 2923 2923 2923 2923 2923 2923 2923 2922 2922 2922 2922 2922 2922 2922 2922 2921 2921 2921 2921 2921 2921 2921 2921 2921 2920 2920 2920 2920 2920 2919 2919 2918 2917 2916 2914 2912 2910 2911 2917 2917 2938 2968 2987 3004 3024 3053 3108 3235 3299 3309 3300 3294 3296 3306 3324 3358 3302 3272 3252 3212 3176 3155 3141 3110 3073 3035 3016 2999 2981 2961 2971 2982 2976 2992 3002 2959 2926 2888 2836 2771 2749 2712 2651 2606 2581 2582 2595 2615 2632 2648 2659 2690 2729 2736 2763 2810 2836 2865 2864 2843 2815 2795 2772 2750 2708 2639 2574 2526 2490 2431 2414 2363 2314 2269 2287 2253 2219 2165 2129 2095 2071 2030 2039 2040 2038 2053 2090 2109 2095 2070 2071 2071 2081 2093 2091 2101 2116 2108 2111 2106 2076 2078 2082 2090 2108 2093 2084 2077 2026 1979 1958 2066 2117 2188 2214 2282 2317 2354 2364 2363 2358 2353 2349 2346 2344 2341 2340 2338 2337 2336 2335
2928 2928 2928 2928 2928 2928 2928 2928 2928 2928 2928 2928 2928 2928 2928 2928 2928 2928 2928 2928 2928 2928 2928 2928 2928 2928 2928 2928 2929 2929 2929 2929 2929 2930 2930 2930 2930 2930 2931 2931 2930 2930 2929 2928 2926 2924 2922 2920 2917 2922 2923 2923 2944 2976 2990 3005 3043 3099 3202 3341 3309 3301 3297 3296 3300 3307 3317 3340 3294 3254 3225 3200 3175 3154 3141 3123 3094 3048 3014 2986 2969 2950 2946 2958 2970 2959 2931 2945 2926 2885 2835 2766 2730 2718 2675 2617 2580 2565 2571 2582 2596 2615 2638 2660 2682 2689 2709 2732 2794 2813 2827 2810 2787 2758 2740 2705 2650 2580 2542 2496 2444 2397 2375 2350 2309 2265 2240 2219 2162 2119 2093 2075 2055 2054 2068 2090 2107 2138 2166 2170 2147 2152 2140 2149 2171 2171 2173 2196 2216 2196 2175 2182 2161 2136 2148 2179 2176 2152 2141 2103 2038 2002 1961 2035 2109 2167 2222 2272 2324 2331 2339 2343 2343 2342 2341 2339 2338 2337 2336 2335 2334 2334 2333
2932 2932 2932 2932 2932 2932 2932 2932 2932 2932 2932 2932 2932 2932 2932 2932 2933 2933 2933 2933 2933 2934 2934 2934 2934 2935 2935 2935 2936 2936 2937 2937 2938 2938 2939 2939 2940 2941 2941 2941 2941 2941 2940 2939 2937 2933 2929 2932 2936 2936 2931 2933 2960 3003 3013 3034 3113 3175 3258 3308 3295 3289 3289 3291 3296 3303 3311 3305 3285 3251 3221 3207 3189 3168 3146 3128 3102 3047 2998 2949 2942 2933 2919 2938 2971 2947 2910 2910 2894 2853 2796 2768 2731 2697 2671 2629 2586 2559 2549 2556 2563 2574 2601 2630 2645 2658 2667 2685 2713 2759 2793 2794 2759 2718 2696 2662 2611 2569 2521 2473 2436 2402 2359 2314 2259 2223 2168 2171 2131 2098 2087 2029 2080 2105 2131 2159 2172 2200 2246 2252 2223 2232 2222 2237 2248 2250 2260 2280 2268 2272 2250 2247 2220 2212 2220 2252 2255 2210 2160 2095 2052 2012 1974 2049 2095 2160 2225 2230 2289 2307 2318 2325 2329 2331 2332 2332 2333 2332 2332 2332 2332 2331 2331
2936 2936 2936 2936 2936 2936 2936 2936 2936 2936 2936 2936 2936 2937 2937 2937 2937 2938 2938 2938 2939 2939 2940 2940 2941 2941 2942 2942 2943 2944 2945 2945 2946 2947 2948 2949 2950 2951 2952 2952 2953 2953 2952 2951 2949 2945 2942 2944 2949 2951 2945 2953 3037 3053 3073 3139 3211 3292 3338 3290 3284 3281 3280 3282 3286 3288 3294 3305 3317 3263 3236 3223 3204 3183 3153 3162 3092 3035 2988 2917 2913 2905 2894 2902 2915 2897 2883 2878 2850 2822 2787 2747 2711 2676 2650 2633 2606 2579 2547 2536 2539 2541 2559 2580 2601 2627 2645 2643 2664 2708 2745 2761 2726 2699 2669 2630 2589 2541 2500 2459 2431 2384 2342 2292 2236 2188 2148 2128 2101 2084 2063 2053 2103 2160 2222 2264 2273 2295 2331 2319 2281 2289 2290 2305 2322 2337 2338 2343 2356 2349 2331 2323 2317 2312 2310 2347 2301 2245 2173 2116 2062 2026 1954 2031 2088 2156 2227 2246 2268 2287 2301 2310 2316 2321 2324 2326 2327 2328 2328 2329 2329 2329 2329
2939 2940 2940 2940 2940 2940 2940 2940 2940 2940 2940 2941 2941 2941 2941 2942 2942 2943 2943 2944 2944 2945 2945 2946 2947 2948 2949 2949 2950 2951 2952 2954 2955 2956 2957 2958 2960 2961 2962 2963 2964 2965 2965 2965 2963 2967 2963 2952 2956 2958 2956 2985 3084 3161 3174 3237 3308 3348 3291 3280 3275 3274 3272 3270 3267 3266 3266 3263 3330 3295 3268 3262 3247 3215 3165 3114 3061 3016 2974 2921 2893 2876 2863 2864 2865 2864 2845 2841 2816 2785 2748 2729 2700 2694 2661 2648 2636 2618 2579 2543 2521 2514 2523 2542 2560 2579 2607 2617 2627 2665 2700 2718 2719 2692 2650 2617 2571 2528 2489 2454 2408 2360 2320 2275 2235 2190 2127 2087 2063 2064 2095 2132 2183 2227 2302 2352 2367 2381 2396 2391 2376 2358 2353 2367 2381 2401 2406 2408 2427 2423 2413 2395 2392 2403 2402 2401 2328 2271 2201 2119 2062 2035 1950 2016 2066 2130 2202 2232 2254 2273 2287 2298 2306 2312 2316 2320 2322 2324 2325 2326 2326 2327 2327
2943 2943 2943 2944 2944 2944 2944 2944 2944 2944 2945 2945 2945 2946 2946 2946 2947 2948 2948 2949 2950 2950 2951 2952 2953 2954 2955 2956 2958 2959 2960 2962 2963 2965 2966 2968 2970 2972 2973 2975 2976 2978 2978 2980 2983 2984 2978 2965 2966 2970 2968 3036 3126 3200 3267 3333 3393 3301 3281 3269 3265 3263 3258 3254 3248 3245 3244 3245 3251 3270 3318 3316 3327 3287 3195 3128 3076 3044 3008 2959 2903 2872 2844 2833 2833 2834 2838 2829 2804 2749 2727 2730 2723 2704 2676 2673 2683 2673 2629 2587 2553 2519 2493 2501 2525 2544 2560 2577 2588 2622 2661 2704 2697 2668 2623 2591 2560 2518 2483 2447 2394 2349 2298 2261 2221 2159 2100 2066 2070 2129 2176 2226 2239 2250 2366 2412 2436 2453 2451 2449 2442 2430 2410 2434 2447 2475 2475 2477 2491 2495 2482 2473 2466 2476 2453 2415 2362 2290 2213 2130 2072 2021 2026 2041 2065 2126 2185 2220 2244 2262 2276 2288 2297 2304 2310 2314 2318 2320 2322 2323 2324 2325 2325
2947 2947 2947 2947 2948 2948 2948 2948 2948 2949 2949 2949 2950 2950 2951 2951 2952 2952 2953 2954 2955 2956 2957 2958 2959 2960 2962 2963 2965 2966 2968 2970 2972 2973 2975 2977 2980 2982 2984 2987 2989 2990 2991 2994 2996 3005 3006 2995 2990 2988 2985 3070 3143 3248 3263 3348 3339 3292 3273 3263 3257 3252 3247 3243 3235 3233 3233 3232 3235 3248 3265 3340 3411 3344 3277 3227 3176 3124 3030 2959 2904 2897 2858 2828 2807 2804 2803 2808 2798 2763 2735 2736 2726 2715 2707 2719 2740 2715 2664 2628 2598 2562 2518 2476 2476 2507 2505 2512 2550 2573 2613 2669 2684 2644 2597 2573 2546 2510 2478 2443 2403 2349 2296 2247 2200 2140 2094 2075 2130 2234 2277 2309 2326 2288 2412 2463 2498 2493 2496 2502 2493 2486 2482 2492 2512 2531 2540 2544 2543 2552 2549 2545 2538 2533 2476 2440 2395 2319 2207 2138 2084 2024 2032 2046 2073 2138 2196 2218 2237 2254 2269 2281 2291 2299 2305 2310 2314 2317 2319 2321 2322 2323 2324
2951 2951 2951 2951 2951 2952 2952 2952 2952 2953 2953 2953 2954 2954 2955 2956 2956 2957 2958 2959 2960 2961 2962 2964 2965 2967 2968 2970 2972 2974 2976 2978 2980 2982 2984 2987 2989 2992 2996 2999 3003 3005 3003 3003 2998 3011 3019 3024 3017 3001 3008 3082 3168 3212 3244 3323 3363 3279 3264 3254 3249 3244 3240 3236 3228 3218 3210 3208 3210 3225 3242 3266 3351 3273 3238 3199 3183 3122 3092 3017 2920 2893 2872 2841 2813 2798 2793 2779 2763 2752 2747 2746 2745 2746 2761 2754 2735 2726 2683 2653 2616 2586 2548 2500 2462 2466 2482 2480 2504 2529 2565 2621 2659 2627 2589 2562 2542 2507 2470 2433 2400 2353 2310 2251 2180 2125 2087 2122 2182 2303 2355 2385 2392 2374 2409 2528 2540 2549 2546 2540 2540 2541 2546 2563 2581 2592 2611 2615 2610 2614 2620 2616 2609 2570 2493 2442 2390 2306 2216 2152 2098 2052 2026 2060 2098 2145 2205 2217 2233 2249 2263 2276 2286 2294 2301 2307 2311 2315 2317 2319 2321 2322 2322
2955 2955 2955 2955 2955 2956 2956 2956 2956 2957 2957 2958 2958 2959 2959 2960 2961 2962 2963 2964 2965 2966 2968 2969 2971 2973 2975 2977 2979 2981 2983 2986 2988 2991 2993 2996 2999 3002 3006 3011 3017 3020 3016 3015 3019 3032 3033 3036 3028 3017 3061 3145 3190 3220 3258 3342 3323 3278 3251 3242 3242 3241 3237 3230 3219 3209 3202 3195 3189 3190 3211 3229 3299 3241 3190 3157 3121 3099 3078 3005 2936 2894 2879 2863 2831 2808 2800 2787 2766 2760 2762 2776 2787 2803 2767 2774 2769 2777 2724 2684 2651 2617 2586 2550 2504 2447 2438 2439 2473 2493 2524 2578 2609 2594 2588 2562 2527 2494 2469 2430 2387 2344 2292 2229 2175 2055 2107 2171 2257 2350 2421 2449 2454 2421 2444 2573 2587 2599 2593 2596 2593 2598 2607 2624 2641 2652 2677 2687 2691 2690 2705 2690 2636 2569 2497 2434 2378 2302 2215 2158 2106 2065 2028 2066 2118 2165 2191 2212 2230 2246 2260 2272 2283 2291 2298 2304 2309 2313 2316 2318 2320 2321 2322
2959 2959 2959 2959 2959 2959 2960 2960 2960 2961 2961 2962 2962 2963 2964 2964 2965 2966 2968 2969 2970 2972 2973 2975 2977 2979 2981 2983 2986 2988 2991 2993 2996 2999 3002 3005 3008 3012 3016 3021 3028 3032 3029 3033 3045 3053 3051 3041 3030 3032 3089 3169 3220 3256 3322 3362 3361 3270 3233 3231 3232 3230 3223 3214 3205 3198 3190 3183 3178 3175 3175 3194 3275 3235 3171 3127 3098 3094 3071 3017 2950 2927 2893 2877 2857 2840 2826 2808 2797 2802 2810 2821 2832 2810 2812 2813 2796 2792 2767 2728 2687 2658 2619 2589 2549 2506 2444 2409 2436 2464 2473 2515 2564 2566 2560 2542 2520 2496 2464 2419 2350 2286 2216 2178 2112 2099 2150 2266 2350 2435 2481 2509 2511 2467 2486 2600 2622 2649 2656 2656 2652 2655 2677 2690 2708 2723 2751 2778 2778 2770 2747 2712 2644 2567 2493 2435 2373 2298 2217 2151 2102 2073 2000 2051 2121 2160 2186 2209 2228 2244 2258 2270 2281 2290 2297 2303 2308 2312 2315 2318 2320 2321 2322
2963 2963 2963 2963 2963 2963 2963 2964 2964 2965 2965 2966 2966 2967 2968 2969 2970 2971 2972 2974 2975 2977 2979 2980 2983 2985 2987 2990 2992 2995 2998 3001 3004 3008 3011 3014 3018 3021 3025 3029 3034 3040 3041 3043 3056 3063 3059 3048 3039 3039 3118 3203 3274 3279 3291 3297 3322 3293 3218 3222 3222 3219 3213 3206 3199 3189 3176 3168 3166 3166 3164 3170 3253 3260 3196 3135 3084 3084 3049 2983 2965 2938 2905 2881 2860 2855 2855 2850 2844 2835 2845 2836 2850 2850 2841 2840 2819 2797 2778 2741 2712 2684 2648 2609 2569 2528 2477 2403 2394 2422 2448 2481 2531 2535 2537 2524 2509 2476 2437 2376 2307 2248 2190 2104 2100 2132 2221 2312 2413 2493 2542 2568 2548 2521 2509 2628 2677 2707 2734 2735 2737 2748 2751 2761 2797 2806 2819 2806 2797 2783 2746 2703 2655 2579 2510 2435 2350 2291 2217 2158 2114 2079 2037 2061 2117 2156 2185 2209 2228 2244 2258 2271 2281 2290 2297 2303 2308 2312 2316 2318 2320 2321 2322
2966 2966 2966 2967 2967 2967 2967 2968 2968 2968 2969 2969 2970 2971 2972 2973 2974 2975 2977 2978 2980 2982 2984 2986 2988 2991 2993 2996 2999 3002 3005 3009 3012 3016 3019 3023 3027 3030 3033 3037 3040 3042 3044 3047 3064 3071 3071 3071 3076 3088 3147 3231 3229 3220 3248 3255 3274 3279 3213 3215 3213 3210 3205 3200 3193 3183 3172 3164 3160 3157 3153 3151 3157 3245 3166 3116 3081 3035 3005 2975 2962 2956 2935 2900 2890 2883 2880 2868 2865 2851 2848 2851 2865 2855 2862 2883 2874 2849 2800 2747 2730 2710 2671 2625 2585 2547 2503 2448 2367 2384 2411 2437 2487 2510 2524 2504 2477 2429 2374 2301 2256 2206 2126 2084 2141 2177 2269 2367 2451 2546 2602 2606 2582 2576 2548 2640 2737 2769 2790 2804 2810 2825 2784 2804 2870 2858 2844 2834 2805 2777 2725 2688 2638 2578 2511 2442 2371 2303 2228 2148 2110 2082 2043 2078 2127 2162 2190 2212 2231 2247 2261 2272 2282 2291 2298 2304 2309 2313 2317 2319 2321 2322 2323
2970 2970 2970 2970 2970 2971 2971 2971 2972 2972 2973 2973 2974 2975 2976 2977 2978 2979 2981 2983 2984 2986 2989 2991 2993 2996 2999 3002 3006 3009 3013 3016 3020 3024 3028 3032 3036 3039 3042 3044 3045 3044 3046 3056 3075 3081 3083 3089 3106 3116 3123 3158 3164 3175 3201 3202 3203 3212 3208 3208 3205 3201 3197 3191 3184 3176 3168 3162 3156 3149 3143 3138 3136 3219 3179 3121 3085 3053 3024 2994 2976 2962 2946 2919 2914 2900 2895 2888 2869 2859 2855 2875 2883 2872 2908 2947 2916 2892 2851 2768 2737 2720 2678 2635 2600 2571 2524 2472 2410 2349 2360 2377 2417 2454 2485 2468 2434 2381 2311 2252 2189 2137 2077 2155 2209 2239 2308 2409 2488 2577 2660 2648 2644 2632 2612 2651 2756 2802 2843 2875 2853 2816 2820 2902 2939 2905 2865 2818 2796 2756 2720 2682 2640 2577 2510 2439 2359 2297 2225 2156 2115 2094 2099 2119 2148 2176 2200 2220 2237 2252 2265 2276 2285 2293 2300 2306 2311 2315 2318 2321 2323 2324 2325
2974 2974 2974 2974 2974 2974 2975 2975 2975 2976 2976 2977 2978 2979 2980 2981 2982 2983 2985 2987 2989 2991 2993 2996 2999 3002 3005 3008 3012 3016 3020 3024 3028 3033 3037 3041 3045 3049 3052 3053 3051 3049 3063 3067 3082 3091 3095 3102 3112 3126 3140 3153 3165 3174 3182 3190 3197 3203 3207 3206 3201 3195 3189 3183 3176 3169 3163 3154 3145 3136 3129 3122 3116 3108 3218 3156 3107 3072 3042 3012 2994 2980 2964 2950 2932 2925 2910 2907 2902 2880 2883 2894 2889 2890 2954 3002 2966 2906 2859 2790 2767 2715 2680 2651 2626 2582 2532 2488 2436 2370 2306 2318 2338 2384 2419 2410 2353 2297 2241 2207 2145 2081 2155 2183 2254 2316 2375 2507 2573 2633 2687 2687 2685 2687 2655 2667 2744 2831 2906 2889 2871 2851 2880 2952 2962 2920 2859 2812 2795 2755 2724 2681 2641 2592 2511 2424 2348 2291 2216 2158 2131 2133 2141 2155 2174 2194 2213 2230 2245 2259 2270 2280 2289 2297 2303 2309 2314 2318 2321 2323 2325 2327 2327
2977 2977 2977 2978 2978 2978 2978 2979 2979 2979 2980 2981 2981 2982 2983 2984 2986 2987 2989 2991 2993 2995 2998 3000 3003 3007 3010 3014 3018 3022 3027 3031 3036 3041 3046 3051 3056 3060 3063 3064 3062 3063 3092 3096 3102 3104 3105 3113 3122 3135 3143 3155 3168 3177 3186 3194 3202 3211 3215 3211 3203 3195 3186 3177 3169 3162 3153 3141 3129 3120 3112 3107 3102 3097 3121 3191 3144 3109 3069 3038 3021 3009 2995 2976 2956 2952 2961 2958 2929 2924 2944 2918 2915 2928 3007 3050 2982 2921 2875 2822 2787 2739 2701 2668 2645 2586 2525 2499 2452 2399 2330 2297 2292 2294 2335 2335 2307 2255 2180 2144 2086 2163 2200 2254 2313 2382 2464 2541 2624 2694 2716 2708 2704 2705 2696 2688 2720 2834 2946 2880 2867 2880 2953 3040 2985 2953 2882 2849 2806 2761 2739 2685 2640 2596 2513 2416 2344 2278 2207 2185 2176 2174 2178 2187 2200 2215 2229 2243 2256 2267 2277 2287 2295 2302 2308 2313 2317 2321 2324 2326 2328 2330 2330
2981 2981 2981 2981 2981 2981 2982 2982 2982 2983 2983 2984 2985 2986 2987 2988 2989 2991 2993 2995 2997 2999 3002 3005 3008 3012 3015 3020 3024 3029 3033 3039 3044 3050 3055 3061 3066 3072 3076 3080 3083 3094 3120 3123 3120 3118 3116 3123 3127 3146 3153 3161 3176 3183 3189 3197 3212 3223 3227 3223 3213 3200 3186 3174 3163 3153 3141 3126 3113 3104 3098 3092 3087 3082 3072 3081 3159 3173 3128 3071 3055 3045 3031 3015 2993 2986 2984 2983 2992 3000 2959 2933 2942 2966 3065 3075 3003 2948 2899 2852 2802 2766 2738 2698 2629 2587 2532 2503 2466 2407 2347 2308 2217 2241 2250 2279 2250 2196 2146 2105 2153 2197 2248 2305 2378 2437 2494 2591 2664 2734 2756 2740 2752 2724 2723 2732 2731 2835 2950 2914 2905 2916 2979 3085 2997 2974 2936 2881 2834 2756 2729 2686 2642 2578 2512 2413 2331 2276 2247 2227 2216 2211 2212 2217 2225 2235 2246 2257 2267 2277 2286 2294 2301 2307 2313 2318 2322 2325 2328 2330 2332 2333 2334
2984 2984 2984 2985 2985 2985 2985 2985 2986 2986 2987 2987 2988 2989 2990 2991 2993 2994 2996 2998 3000 3003 3006 3009 3012 3016 3020 3025 3029 3035 3040 3046 3052 3058 3064 3071 3078 3084 3091 3098 3108 3127 3140 3138 3134 3131 3127 3128 3144 3157 3166 3169 3184 3188 3192 3211 3231 3240 3242 3238 3228 3213 3195 3175 3159 3144 3130 3117 3107 3099 3092 3084 3075 3068 3061 3049 3038 3040 3037 3084 3119 3133 3082 3061 3038 3024 3010 3028 3077 3002 2997 2977 2986 3023 3092 3061 3012 2971 2905 2864 2826 2833 2768 2725 2647 2594 2548 2514 2472 2416 2362 2317 2266 2217 2156 2192 2172 2102 2132 2178 2201 2245 2312 2387 2444 2504 2568 2598 2638 2718 2780 2794 2795 2761 2743 2764 2773 2848 2970 2979 2964 2981 3051 3070 3022 2979 2961 2917 2844 2766 2715 2677 2633 2570 2483 2406 2350 2311 2284 2264 2251 2244 2242 2244 2249 2256 2263 2272 2280 2288 2295 2302 2308 2314 2319 2323 2327 2330 2333 2335 2336 2337 2338
2988 2988 2988 2988 2988 2988 2988 2989 2989 2989 2990 2991 2991 2992 2993 2994 2996 2997 2999 3001 3004 3006 3009 3013 3016 3020 3025 3030 3035 3040 3046 3052 3059 3066 3073 3081 3089 3097 3105 3114 3124 3148 3154 3150 3145 3142 3135 3143 3161 3169 3170 3176 3197 3207 3219 3233 3245 3251 3252 3250 3244 3233 3214 3184 3157 3138 3124 3114 3105 3096 3087 3078 3069 3061 3053 3044 3026 3008 2986 3006 3023 3023 3090 3105 3088 3066 3034 3076 3113 3038 3022 3012 3040 3066 3018 2988 2969 2929 2900 2872 2862 2835 2796 2749 2674 2599 2529 2481 2433 2391 2358 2318 2257 2199 2162 2125 2135 2154 2194 2240 2266 2309 2410 2470 2512 2589 2638 2682 2736 2762 2790 2852 2825 2813 2806 2794 2818 2891 3005 3084 3089 3094 3127 3072 3050 3006 2994 2945 2860 2776 2699 2664 2632 2559 2488 2428 2380 2343 2316 2296 2282 2273 2269 2269 2271 2275 2280 2286 2293 2299 2305 2311 2316 2321 2325 2329 2333 2335 2338 2340 2341 2342 2343
2991 2991 2991 2991 2991 2992 2992 2992 2992 2993 2993 2994 2994 2995 2996 2997 2999 3000 3002 3004 3007 3009 3013 3016 3020 3024 3029 3034 3039 3045 3052 3059 3066 3073 3082 3090 3100 3110 3120 3129 3140 3158 3162 3157 3155 3153 3146 3158 3172 3176 3175 3184 3207 3220 3230 3239 3248 3254 3257 3259 3261 3265 3265 3195 3158 3134 3120 3112 3103 3093 3083 3074 3064 3055 3045 3030 3012 2980 2940 2918 2938 2950 2979 3026 3044 3037 3043 3085 3128 3077 3043 3052 3099 3083 3028 2988 2958 2917 2889 2887 2878 2857 2818 2756 2685 2615 2543 2478 2417 2380 2338 2316 2261 2195 2147 2122 2160 2204 2255 2303 2340 2391 2489 2546 2602 2646 2695 2757 2785 2841 2846 2865 2855 2857 2846 2826 2859 2944 3036 3132 3180 3190 3148 3088 3067 3015 3020 2959 2879 2769 2696 2649 2619 2556 2496 2444 2402 2368 2342 2323 2309 2299 2294 2291 2291 2293 2297 2301 2305 2310 2315 2320 2325 2329 2332 2336 2339 2341 2343 2345 2346 2347 2348
2995 2995 2995 2995 2995 2995 2995 2995 2995 2996 2996 2997 2997 2998 2999 3000 3001 3003 3005 3007 3009 3012 3015 3019 3023 3028 3032 3038 3044 3050 3057 3064 3072 3081 3089 3099 3110 3122 3134 3139 3149 3159 3162 3163 3163 3160 3155 3169 3182 3181 3186 3192 3210 3223 3232 3241 3248 3254 3260 3265 3273 3286 3280 3228 3158 3131 3117 3107 3099 3090 3080 3070 3060 3049 3038 3022 3003 2981 2956 2934 2898 2899 2920 2946 2919 2927 2964 3018 3074 3089 3083 3110 3088 3069 3051 2988 2934 2913 2900 2892 2875 2864 2819 2757 2688 2628 2565 2494 2422 2360 2315 2288 2245 2190 2151 2153 2184 2263 2311 2361 2435 2519 2575 2614 2664 2713 2767 2799 2851 2879 2868 2866 2883 2870 2864 2852 2902 2996 3111 3177 3268 3240 3171 3104 3072 3053 3028 2964 2881 2778 2696 2640 2610 2549 2497 2453 2417 2387 2364 2345 2331 2321 2315 2311 2310 2310 2312 2315 2318 2322 2326 2330 2333 2337 2340 2343 2345 2348 2350 2351 2352 2353 2353
2998 2998 2998 2998 2998 2998 2998 2998 2998 2999 2999 2999 3000 3000 3001 3002 3004 3005 3007 3009 3012 3014 3018 3022 3026 3030 3036 3041 3048 3054 3062 3070 3078 3087 3097 3107 3118 3130 3143 3146 3153 3159 3163 3165 3166 3160 3163 3183 3196 3192 3198 3203 3208 3221 3230 3239 3248 3254 3261 3269 3273 3327 3283 3235 3168 3138 3122 3109 3099 3090 3080 3068 3056 3045 3032 3016 2999 2976 2952 2915 2863 2810 2822 2852 2831 2850 2900 2957 3014 3032 3041 3063 3036 3016 2999 2961 2928 2922 2902 2877 2849 2822 2786 2741 2682 2623 2559 2489 2418 2350 2300 2273 2232 2190 2131 2185 2227 2339 2375 2437 2540 2608 2647 2682 2724 2771 2822 2874 2897 2894 2880 2881 2910 2893 2899 2902 3006 3043 3117 3248 3346 3250 3187 3120 3099 3050 2999 2929 2848 2771 2691 2629 2589 2537 2489 2456 2427 2402 2381 2364 2350 2341 2334 2329 2327 2326 2327 2329 2331 2334 2336 2339 2342 2345 2348 2350 2353 2354 2356 2357 2358 2359 2360
3001 3001 3001 3001 3001 3001 3001 3001 3001 3001 3002 3002 3002 3003 3004 3004 3006 3007 3009 3011 3013 3016 3020 3023 3028 3033 3038 3044 3051 3058 3066 3074 3083 3093 3103 3113 3124 3136 3146 3152 3157 3162 3165 3168 3169 3163 3172 3195 3205 3206 3207 3209 3207 3218 3229 3242 3254 3259 3267 3275 3281 3349 3270 3221 3188 3157 3136 3120 3105 3094 3085 3071 3056 3043 3026 3011 2991 2965 2932 2890 2814 2785 2766 2774 2767 2784 2813 2899 2953 2988 2974 2998 3006 2979 2950 2948 2910 2919 2879 2848 2818 2796 2764 2727 2674 2619 2554 2482 2408 2349 2299 2245 2218 2186 2160 2220 2258 2353 2448 2524 2618 2674 2715 2750 2790 2834 2882 2967 2915 2910 2894 2890 2923 2929 2941 2955 3055 3148 3196 3282 3387 3300 3212 3135 3097 3042 2943 2887 2815 2751 2681 2629 2577 2523 2473 2456 2433 2412 2394 2379 2366 2357 2350 2346 2343 2341 2341 2342 2343 2345 2347 2349 2352 2354 2356 2358 2360 2362 2363 2364 2365 2366 2366
3005 3005 3004 3004 3004 3004 3004 3004 3004 3004 3004 3004 3005 3005 3006 3006 3007 3009 3010 3012 3015 3018 3021 3025 3029 3034 3040 3046 3053 3061 3069 3078 3087 3098 3108 3119 3130 3141 3150 3157 3162 3167 3169 3173 3177 3172 3189 3211 3218 3219 3213 3209 3208 3227 3242 3253 3262 3266 3276 3288 3303 3352 3273 3235 3210 3183 3158 3141 3127 3109 3096 3086 3069 3048 3028 3003 2960 2949 2923 2894 2815 2784 2773 2767 2755 2750 2753 2823 2895 2925 2926 2932 2944 2937 2923 2915 2910 2894 2856 2836 2808 2771 2733 2703 2651 2604 2543 2460 2397 2342 2289 2239 2187 2151 2195 2260 2308 2386 2475 2568 2658 2707 2762 2803 2843 2903 2968 2985 2937 2925 2907 2924 2950 2958 2966 2981 3069 3177 3231 3325 3396 3341 3220 3121 3056 3004 2923 2858 2795 2728 2663 2615 2563 2513 2482 2458 2438 2420 2404 2391 2380 2371 2365 2360 2357 2355 2354 2354 2355 2356 2358 2359 2361 2363 2365 2366 2368 2369 2370 2371 2372 2372 2373
3008 3008 3008 3008 3007 3007 3007 3007 3007 3007 3007 3007 3007 3007 3007 3008 3009 3010 3011 3013 3016 3018 3022 3026 3030 3035 3041 3048 3055 3063 3072 3081 3091 3102 3113 3124 3136 3147 3157 3163 3169 3174 3175 3180 3186 3184 3214 3227 3230 3226 3215 3210 3225 3253 3262 3263 3268 3278 3288 3296 3318 3365 3296 3252 3225 3204 3181 3158 3146 3135 3117 3097 3081 3057 3040 3004 2952 2914 2878 2858 2810 2804 2790 2786 2774 2743 2742 2758 2823 2837 2869 2887 2909 2908 2904 2890 2909 2888 2856 2837 2795 2747 2697 2659 2624 2586 2525 2457 2412 2346 2284 2218 2171 2197 2231 2291 2361 2444 2525 2604 2670 2722 2797 2846 2897 2972 3033 2983 2968 2959 2956 2987 2984 2989 2991 3025 3057 3110 3197 3261 3347 3286 3177 3112 3052 2945 2893 2822 2774 2703 2642 2599 2555 2512 2482 2459 2440 2425 2412 2400 2391 2384 2378 2373 2370 2368 2367 2366 2367 2367 2368 2369 2371 2372 2373 2375 2376 2377 2378 2379 2379 2380 2380
3011 3011 3011 3011 3011 3010 3010 3010 3010 3009 3009 3009 3009 3009 3009 3009 3010 3011 3012 3014 3016 3019 3022 3026 3030 3035 3042 3048 3056 3064 3073 3083 3094 3105 3117 3129 3142 3154 3164 3169 3176 3180 3182 3186 3192 3216 3239 3245 3242 3233 3223 3224 3260 3281 3285 3282 3286 3292 3298 3304 3333 3426 3363 3287 3249 3220 3198 3174 3162 3154 3148 3141 3131 3076 3039 2998 2932 2902 2886 2867 2851 2804 2791 2759 2716 2696 2703 2723 2779 2798 2817 2835 2850 2853 2852 2827 2842 2835 2804 2778 2743 2702 2657 2630 2601 2552 2494 2423 2373 2298 2245 2207 2168 2222 2268 2327 2417 2473 2547 2638 2695 2755 2833 2882 2960 3046 3049 2990 2981 2972 2988 2999 3008 3010 3004 3037 3072 3084 3152 3229 3311 3283 3221 3124 3014 2929 2867 2783 2745 2679 2618 2572 2535 2501 2475 2455 2440 2428 2417 2408 2401 2394 2389 2385 2382 2380 2379 2378 2378 2378 2378 2379 2380 2381 2382 2383 2384 2385 2385 2386 2387 2387 2387
3015 3014 3014 3014 3014 3013 3013 3013 3012 3012 3011 3011 3010 3010 3010 3010 3011 3011 3012 3014 3016 3018 3021 3025 3029 3035 3041 3048 3056 3065 3074 3084 3096 3107 3120 3133 3146 3159 3165 3173 3181 3186 3184 3181 3203 3241 3251 3255 3248 3237 3236 3260 3286 3300 3302 3297 3298 3304 3309 3314 3341 3338 3303 3279 3277 3281 3223 3192 3183 3188 3196 3236 3134 3104 3049 3013 2967 2923 2910 2882 2890 2825 2776 2734 2686 2668 2654 2665 2723 2764 2777 2779 2788 2792 2785 2772 2767 2753 2745 2723 2683 2655 2630 2602 2555 2492 2428 2371 2319 2267 2225 2175 2213 2244 2298 2374 2446 2504 2575 2657 2724 2795 2863 2917 3028 3090 3048 3032 2999 3021 3015 3022 3031 3024 3027 3061 3080 3098 3146 3264 3300 3237 3178 3091 3013 2923 2845 2784 2702 2646 2588 2544 2508 2481 2461 2448 2438 2429 2422 2415 2409 2404 2400 2396 2394 2391 2390 2389 2388 2388 2389 2389 2389 2390 2391 2391 2392 2393 2393 2394 2394 2394 2395
3018 3018 3018 3017 3017 3017 3016 3015 3015 3014 3013 3013 3012 3012 3011 3011 3011 3011 3012 3013 3015 3017 3020 3023 3028 3033 3039 3047 3055 3064 3074 3085 3097 3109 3122 3134 3147 3157 3166 3175 3183 3189 3183 3180 3212 3249 3260 3265 3243 3241 3259 3288 3302 3311 3312 3308 3307 3313 3319 3324 3323 3312 3263 3229 3217 3207 3202 3201 3239 3233 3203 3161 3161 3105 3078 3030 2979 2942 2925 2918 2895 2851 2802 2741 2701 2666 2633 2635 2669 2728 2739 2734 2743 2748 2744 2719 2705 2699 2697 2676 2650 2626 2593 2530 2475 2425 2380 2340 2286 2245 2191 2218 2251 2286 2343 2389 2454 2525 2583 2671 2755 2835 2895 2959 3047 3123 3077 3067 3045 3058 3041 3044 3047 3042 3068 3120 3122 3138 3157 3235 3259 3152 3088 3045 2968 2897 2825 2753 2686 2620 2555 2505 2472 2451 2441 2437 2433 2430 2426 2421 2417 2413 2410 2407 2404 2402 2401 2400 2399 2399 2398 2399 2399 2399 2400 2400 2400 2401 2401 2402 2402 2402 2402
3021 3021 3021 3021 3020 3020 3019 3018 3017 3016 3016 3015 3014 3013 3012 3011 3011 3011 3011 3012 3013 3015 3017 3021 3025 3030 3037 3044 3053 3062 3073 3084 3096 3109 3123 3136 3147 3158 3166 3173 3186 3197 3190 3189 3233 3274 3277 3272 3253 3266 3289 3308 3317 3321 3319 3313 3314 3324 3340 3382 3294 3257 3229 3203 3191 3189 3182 3146 3169 3134 3167 3133 3111 3066 3062 3067 3042 2997 2977 2914 2854 2822 2752 2723 2675 2643 2628 2612 2626 2670 2697 2715 2720 2716 2706 2686 2672 2664 2656 2637 2608 2562 2519 2460 2418 2379 2339 2295 2260 2219 2217 2255 2285 2331 2404 2475 2505 2561 2611 2702 2773 2851 2925 2996 3068 3148 3142 3098 3081 3069 3062 3059 3059 3061 3127 3172 3170 3179 3195 3266 3256 3133 3055 2990 2939 2869 2792 2735 2681 2606 2531 2460 2420 2409 2415 2424 2429 2430 2430 2428 2425 2422 2419 2417 2415 2413 2411 2410 2409 2409 2408 2408 2408 2408 2408 2409 2409 2409 2409 2410 2410 2410 2410
3025 3025 3025 3024 3024 3023 3022 3021 3020 3019 3018 3016 3015 3014 3013 3012 3011 3010 3010 3010 3011 3012 3014 3017 3021 3026 3033 3040 3049 3059 3070 3082 3095 3109 3123 3137 3149 3158 3165 3169 3193 3213 3209 3260 3286 3290 3288 3277 3291 3307 3314 3321 3329 3331 3329 3323 3331 3362 3395 3333 3255 3231 3214 3192 3178 3164 3164 3138 3116 3058 3069 3059 3050 3030 3004 3005 3000 2975 2952 2915 2849 2783 2736 2688 2667 2617 2591 2578 2591 2626 2649 2658 2675 2671 2666 2655 2647 2638 2621 2587 2546 2481 2444 2401 2366 2327 2289 2253 2215 2225 2263 2264 2323 2383 2461 2528 2583 2624 2682 2742 2802 2876 2952 3060 3137 3178 3133 3118 3100 3087 3076 3073 3076 3082 3125 3188 3227 3214 3243 3292 3231 3164 3070 2986 2907 2845 2774 2712 2637 2587 2509 2446 2384 2333 2387 2416 2428 2433 2435 2434 2433 2431 2429 2427 2425 2423 2421 2420 2419 2419 2418 2418 2417 2417 2417 2417 2417 2418 2418 2418 2418 2418 2418
3029 3028 3028 3028 3027 3026 3025 3024 3023 3021 3020 3018 3016 3015 3013 3012 3010 3009 3008 3008 3008 3008 3010 3012 3016 3021 3027 3035 3044 3055 3066 3079 3092 3108 3124 3139 3153 3161 3163 3168 3212 3236 3229 3336 3301 3303 3300 3304 3319 3329 3332 3336 3338 3338 3336 3342 3384 3409 3325 3277 3239 3220 3206 3187 3170 3152 3126 3103 3050 3022 3029 3021 2987 2949 2934 2931 2933 2907 2898 2864 2804 2768 2732 2688 2643 2597 2562 2535 2553 2593 2604 2601 2623 2626 2619 2614 2609 2595 2568 2520 2476 2435 2397 2363 2323 2287 2255 2210 2241 2260 2315 2321 2309 2414 2493 2563 2610 2667 2715 2771 2835 2893 2966 3065 3133 3183 3153 3131 3106 3097 3088 3090 3093 3107 3138 3190 3283 3274 3306 3230 3153 3096 3046 2949 2876 2814 2748 2686 2622 2556 2493 2446 2404 2370 2395 2420 2433 2439 2442 2442 2441 2440 2438 2436 2435 2433 2431 2430 2429 2428 2428 2427 2427 2426 2426 2426 2426 2426 2426 2426 2426 2426 2426
3032 3032 3032 3031 3030 3029 3028 3027 3025 3024 3022 3020 3018 3016 3014 3011 3009 3007 3006 3004 3004 3004 3004 3006 3009 3014 3020 3028 3038 3049 3061 3073 3088 3104 3122 3142 3157 3163 3163 3180 3236 3255 3255 3346 3312 3313 3316 3327 3334 3338 3342 3345 3346 3343 3345 3395 3409 3327 3288 3247 3208 3207 3188 3167 3143 3129 3114 3078 3021 2979 2986 2976 2935 2912 2886 2866 2829 2806 2803 2776 2747 2709 2670 2634 2588 2557 2512 2487 2494 2529 2545 2562 2574 2579 2579 2575 2571 2539 2519 2477 2436 2395 2360 2331 2296 2267 2221 2257 2272 2304 2322 2378 2388 2407 2485 2520 2572 2645 2728 2810 2847 2909 2987 3058 3125 3195 3178 3152 3122 3119 3109 3107 3117 3153 3169 3206 3296 3283 3256 3192 3134 3059 2991 2938 2861 2801 2722 2657 2598 2539 2499 2470 2443 2426 2428 2437 2445 2449 2451 2451 2451 2449 2448 2446 2444 2443 2441 2440 2439 2438 2437 2436 2436 2435 2435 2435 2434 2434 2434 2434 2434 2434 2434
3036 3036 3036 3035 3034 3033 3032 3030 3028 3026 3024 3022 3019 3017 3014 3011 3008 3005 3003 3001 2999 2998 2997 2998 3001 3005 3011 3019 3029 3041 3054 3067 3080 3094 3115 3143 3162 3167 3167 3194 3251 3272 3298 3344 3323 3321 3330 3338 3342 3346 3348 3351 3352 3354 3360 3421 3369 3298 3242 3198 3164 3135 3135 3126 3090 3086 3055 3010 2978 2951 2953 2924 2880 2855 2823 2804 2785 2758 2742 2707 2678 2634 2595 2560 2527 2502 2474 2439 2440 2460 2469 2482 2491 2504 2499 2494 2502 2485 2475 2447 2418 2386 2346 2310 2278 2229 2269 2284 2315 2357 2386 2415 2455 2441 2478 2567 2637 2694 2732 2794 2860 2915 2978 3014 3066 3159 3212 3186 3162 3152 3149 3169 3218 3215 3203 3237 3290 3218 3175 3171 3098 3018 2951 2885 2829 2773 2707 2639 2587 2554 2523 2497 2475 2461 2457 2457 2460 2461 2462 2462 2461 2459 2458 2456 2454 2453 2451 2450 2448 2447 2446 2445 2445 2444 2444 2443 2443 2443 2443 2442 2442 2442 2442
3041 3040 3040 3039 3038 3037 3035 3033 3031 3029 3026 3024 3021 3017 3014 3011 3007 3003 3000 2996 2993 2991 2989 2989 2990 2993 2999 3008 3019 3032 3046 3059 3070 3077 3094 3139 3166 3176 3178 3208 3260 3284 3303 3319 3332 3341 3352 3356 3356 3353 3352 3354 3358 3367 3381 3342 3374 3308 3226 3175 3152 3123 3064 3053 3040 3009 2978 2955 2930 2917 2895 2873 2847 2809 2792 2782 2757 2723 2680 2639 2599 2567 2534 2494 2460 2442 2424 2418 2404 2409 2412 2415 2426 2445 2449 2441 2444 2431 2417 2409 2380 2343 2303 2278 2241 2295 2316 2332 2375 2399 2459 2485 2530 2510 2527 2564 2633 2722 2790 2841 2886 2923 2970 2999 3063 3145 3226 3218 3205 3193 3231 3222 3229 3231 3235 3245 3201 3146 3112 3087 3080 3001 2920 2865 2805 2743 2686 2640 2602 2571 2544 2521 2502 2489 2481 2477 2476 2475 2474 2473 2471 2470 2468 2466 2464 2463 2461 2459 2458 2457 2456 2455 2454 2453 2452 2452 2452 2451 2451 2451 2451 2450 2450
3045 3045 3044 3043 3042 3041 3039 3037 3035 3032 3029 3026 3022 3018 3014 3010 3006 3001 2996 2992 2987 2983 2980 2978 2977 2979 2984 2994 3007 3022 3038 3052 3062 3068 3090 3143 3175 3186 3185 3228 3269 3290 3307 3320 3338 3355 3368 3371 3368 3364 3355 3353 3356 3388 3276 3301 3277 3244 3204 3132 3114 3036 3009 2987 2973 2951 2937 2909 2885 2870 2841 2811 2785 2760 2748 2726 2697 2660 2617 2576 2530 2490 2454 2428 2410 2408 2397 2380 2376 2372 2371 2367 2372 2384 2394 2385 2380 2368 2352 2337 2308 2286 2252 2262 2285 2335 2366 2400 2427 2477 2506 2555 2579 2595 2609 2604 2647 2721 2829 2872 2900 2928 2963 3026 3088 3161 3237 3279 3268 3210 3169 3134 3152 3161 3180 3148 3114 3074 3044 3018 2986 2941 2902 2847 2777 2712 2676 2645 2614 2586 2562 2541 2524 2511 2502 2496 2492 2489 2487 2485 2482 2480 2478 2476 2474 2472 2470 2469 2467 2466 2465 2464 2463 2462 2461 2460 2460 2460 2459 2459 2459 2459 2459
3050 3049 3049 3048 3046 3045 3043 3041 3038 3035 3032 3028 3024 3020 3015 3010 3004 2999 2993 2987 2980 2974 2969 2964 2961 2961 2965 2975 2991 3011 3030 3047 3055 3066 3099 3148 3183 3195 3192 3241 3282 3299 3315 3329 3342 3362 3378 3381 3393 3386 3359 3353 3290 3242 3170 3182 3187 3161 3114 3056 3021 2973 2953 2944 2932 2914 2891 2882 2869 2834 2792 2775 2755 2730 2703 2663 2626 2583 2538 2499 2458 2429 2404 2392 2385 2379 2372 2366 2357 2343 2336 2329 2326 2336 2349 2340 2329 2319 2311 2288 2265 2286 2300 2313 2346 2378 2417 2450 2482 2526 2573 2606 2628 2643 2674 2698 2697 2756 2833 2866 2900 2941 2972 3053 3114 3191 3267 3257 3183 3133 3101 3077 3073 3090 3104 3093 3038 3011 2987 2956 2930 2899 2854 2814 2760 2714 2679 2650 2623 2599 2578 2559 2543 2530 2520 2513 2507 2503 2500 2496 2494 2491 2489 2486 2484 2482 2480 2478 2477 2475 2474 2473 2471 2471 2470 2469 2468 2468 2468 2467 2467 2467 2467
3054 3054 3053 3052 3051 3049 3047 3045 3042 3039 3035 3031 3026 3021 3016 3010 3003 2996 2989 2981 2973 2965 2957 2949 2943 2938 2939 2948 2970 2999 3022 3036 3044 3059 3091 3157 3188 3200 3204 3217 3296 3314 3317 3335 3345 3361 3420 3452 3462 3426 3298 3227 3181 3142 3121 3109 3084 3063 3036 3009 2990 2972 2954 2930 2906 2884 2872 2853 2831 2800 2765 2752 2695 2680 2630 2588 2556 2508 2471 2445 2411 2393 2385 2384 2380 2381 2380 2374 2368 2357 2355 2357 2352 2329 2311 2300 2294 2295 2285 2279 2302 2328 2334 2358 2389 2405 2460 2502 2540 2581 2623 2632 2661 2696 2721 2737 2758 2788 2840 2870 2916 2952 2993 3073 3160 3230 3259 3237 3170 3135 3104 3079 3065 3054 3049 3035 3009 2983 2928 2907 2870 2859 2829 2778 2739 2705 2677 2653 2631 2610 2591 2574 2559 2547 2537 2528 2522 2517 2512 2508 2505 2502 2499 2496 2494 2492 2490 2488 2486 2484 2483 2481 2480 2479 2478 2477 2477 2476 2476 2475 2475 2475 2475
3060 3059 3058 3057 3056 3054 3052 3049 3046 3043 3038 3034 3029 3023 3017 3010 3003 2995 2986 2976 2966 2955 2944 2933 2921 2911 2903 2906 2935 2990 3017 3036 3044 3061 3101 3149 3191 3208 3218 3225 3306 3326 3334 3337 3345 3361 3400 3406 3366 3332 3228 3201 3166 3137 3107 3089 3071 3039 3016 3001 2987 2966 2951 2925 2899 2879 2846 2830 2790 2775 2723 2692 2664 2617 2573 2531 2487 2460 2443 2434 2400 2394 2394 2399 2418 2428 2430 2426 2423 2424 2417 2404 2391 2379 2364 2351 2341 2343 2331 2310 2353 2372 2384 2407 2442 2481 2514 2540 2589 2629 2651 2670 2701 2718 2743 2764 2799 2832 2849 2888 2905 2953 2982 3037 3112 3174 3260 3281 3200 3157 3123 3108 3062 3031 3023 2998 2972 2951 2915 2872 2842 2807 2753 2734 2711 2692 2673 2655 2636 2619 2602 2587 2573 2561 2551 2543 2535 2529 2524 2520 2516 2513 2509 2506 2504 2501 2499 2497 2495 2493 2492 2490 2489 2488 2487 2486 2485 2484 2484 2484 2483 2483 2483
3065 3065 3064 3063 3061 3059 3057 3054 3051 3047 3042 3038 3032 3026 3019 3011 3003 2994 2983 2972 2960 2946 2932 2916 2900 2882 2861 2825 2860 2976 3004 3037 3052 3079 3130 3163 3197 3215 3223 3234 3289 3332 3335 3348 3356 3367 3425 3367 3309 3276 3233 3204 3162 3128 3105 3070 3043 3007 2991 2981 2964 2958 2957 2933 2892 2864 2843 2812 2764 2700 2683 2634 2594 2547 2515 2484 2456 2437 2413 2400 2399 2410 2450 2475 2487 2495 2498 2493 2498 2496 2484 2470 2459 2453 2433 2410 2399 2397 2379 2359 2391 2411 2424 2455 2487 2517 2557 2566 2626 2659 2685 2705 2728 2730 2756 2794 2823 2867 2884 2902 2914 2926 2959 3002 3084 3179 3280 3343 3272 3189 3159 3134 3065 3025 3015 2992 2957 2947 2915 2875 2827 2776 2730 2681 2678 2675 2668 2656 2642 2627 2612 2598 2586 2574 2564 2556 2548 2542 2536 2531 2527 2523 2519 2516 2513 2511 2508 2506 2504 2502 2500 2499 2497 2496 2495 2494 2493 2493 2492 2492 2491 2491 2491
3071 3070 3070 3068 3067 3065 3062 3059 3056 3052 3047 3042 3036 3029 3022 3013 3004 2993 2982 2969 2954 2938 2921 2901 2880 2856 2830 2806 2812 2882 2993 3043 3061 3104 3146 3188 3208 3224 3235 3240 3293 3337 3357 3370 3373 3370 3400 3307 3266 3248 3217 3194 3197 3171 3112 3060 3040 2990 2970 2958 2945 2931 2940 2927 2872 2853 2818 2769 2723 2676 2634 2585 2535 2505 2479 2457 2436 2412 2405 2415 2441 2493 2522 2541 2554 2568 2566 2575 2577 2569 2584 2543 2539 2533 2509 2483 2476 2453 2424 2376 2429 2442 2475 2509 2540 2563 2583 2635 2623 2676 2711 2735 2760 2773 2783 2816 2841 2883 2921 2915 2944 2950 2973 2993 3059 3155 3226 3317 3262 3232 3204 3160 3092 3055 3033 3007 2990 2946 2922 2880 2839 2791 2731 2676 2629 2663 2666 2659 2648 2635 2622 2609 2597 2586 2576 2568 2560 2553 2547 2542 2537 2533 2529 2526 2523 2520 2517 2515 2513 2511 2509 2507 2506 2504 2503 2502 2501 2501 2500 2500 2499 2499 2499
3077 3076 3076 3074 3073 3071 3068 3065 3061 3057 3052 3047 3040 3033 3025 3016 3006 2994 2982 2967 2951 2932 2912 2888 2862 2834 2807 2786 2781 2834 2954 3061 3058 3104 3155 3198 3215 3231 3245 3253 3300 3344 3375 3388 3385 3368 3335 3283 3236 3216 3171 3145 3141 3116 3106 3088 3027 2992 2964 2943 2924 2887 2889 2875 2834 2794 2752 2716 2673 2632 2596 2550 2503 2460 2440 2422 2412 2422 2443 2482 2529 2567 2587 2605 2614 2621 2628 2635 2630 2633 2637 2607 2603 2590 2568 2568 2557 2508 2435 2393 2459 2486 2525 2563 2587 2614 2627 2659 2671 2689 2738 2758 2788 2825 2831 2847 2858 2892 2924 2934 2950 2971 2989 3001 3055 3156 3239 3324 3297 3267 3220 3164 3125 3105 3079 3066 3004 2979 2935 2881 2835 2784 2734 2693 2659 2669 2671 2665 2655 2643 2631 2619 2608 2597 2588 2579 2571 2564 2558 2553 2548 2543 2539 2535 2532 2529 2526 2524 2521 2519 2517 2516 2514 2513 2511 2510 2509 2509 2508 2507 2507 2507 2507
3083 3083 3082 3081 3079 3077 3074 3071 3067 3063 3058 3052 3046 3038 3030 3020 3009 2997 2983 2967 2949 2929 2906 2879 2848 2813 2779 2750 2769 2811 2850 2951 3016 3084 3181 3214 3228 3241 3251 3255 3302 3349 3385 3400 3393 3369 3314 3259 3217 3168 3133 3113 3107 3078 3042 3010 3005 3002 2955 2918 2897 2873 2840 2827 2780 2739 2703 2661 2623 2586 2548 2511 2472 2434 2419 2435 2441 2485 2530 2571 2603 2621 2637 2648 2665 2679 2694 2696 2706 2733 2703 2666 2674 2667 2640 2611 2551 2477 2442 2443 2491 2540 2578 2613 2636 2655 2665 2700 2706 2721 2749 2778 2811 2839 2857 2884 2898 2906 2934 2951 3011 3001 3018 3034 3072 3179 3259 3362 3405 3354 3287 3209 3182 3160 3160 3117 3068 3026 2957 2893 2853 2778 2744 2718 2697 2688 2682 2673 2663 2652 2640 2629 2618 2607 2598 2589 2582 2575 2568 2563 2557 2553 2549 2545 2541 2538 2535 2532 2530 2528 2526 2524 2522 2521 2519 2518 2517 2517 2516 2515 2515 2515 2514
3090 3090 3089 3088 3086 3084 3081 3078 3074 3070 3065 3059 3052 3044 3035 3025 3014 3001 2986 2970 2951 2929 2904 2875 2840 2796 2750 2761 2776 2808 2845 2883 2934 3056 3183 3240 3249 3254 3261 3274 3308 3357 3399 3427 3383 3368 3280 3232 3199 3153 3124 3105 3084 3051 3011 2983 2975 2949 2935 2916 2873 2839 2810 2760 2745 2695 2646 2601 2561 2527 2497 2466 2444 2433 2457 2464 2514 2561 2602 2636 2650 2666 2687 2706 2724 2741 2749 2752 2778 2787 2748 2728 2746 2736 2695 2624 2562 2487 2461 2480 2534 2585 2628 2654 2671 2689 2716 2738 2743 2758 2769 2810 2850 2870 2877 2883 2933 2950 2959 2999 3050 3038 3041 3062 3084 3149 3270 3362 3432 3389 3321 3273 3240 3267 3182 3124 3093 3050 2971 2920 2870 2808 2770 2742 2721 2706 2695 2683 2672 2660 2649 2638 2627 2617 2608 2599 2591 2584 2578 2572 2567 2562 2558 2554 2550 2547 2544 2541 2538 2536 2534 2532 2530 2529 2527 2526 2525 2524 2524 2523 2523 2522 2522
3097 3097 3096 3095 3093 3091 3088 3085 3081 3077 3072 3066 3059 3051 3042 3032 3020 3007 2992 2975 2955 2933 2908 2878 2843 2802 2758 2770 2786 2835 2864 2875 2903 2978 3120 3251 3265 3273 3275 3288 3312 3359 3400 3309 3299 3268 3298 3228 3178 3130 3101 3069 3040 3031 2995 2961 2932 2910 2889 2869 2832 2802 2774 2732 2690 2638 2591 2553 2519 2482 2462 2473 2466 2470 2489 2548 2595 2631 2663 2685 2707 2720 2742 2762 2781 2794 2796 2811 2835 2821 2799 2797 2775 2736 2684 2625 2557 2488 2445 2507 2575 2626 2660 2676 2699 2731 2767 2764 2774 2794 2803 2825 2859 2869 2878 2885 2938 3004 3011 3028 3083 3092 3073 3090 3105 3166 3236 3354 3375 3320 3295 3290 3274 3243 3152 3102 3072 3066 3003 2938 2881 2832 2793 2763 2740 2722 2707 2693 2681 2669 2657 2646 2636 2626 2617 2608 2601 2594 2587 2581 2576 2571 2566 2562 2559 2555 2552 2549 2546 2544 2542 2540 2538 2537 2535 2534 2533 2532 2531 2531 2530 2530 2530
3105 3104 3104 3102 3101 3099 3096 3093 3089 3085 3080 3074 3067 3059 3050 3040 3028 3015 3000 2982 2963 2941 2916 2888 2857 2824 2792 2786 2814 2866 2892 2892 2918 2952 3031 3178 3291 3306 3300 3300 3312 3369 3295 3237 3187 3176 3174 3236 3192 3117 3068 3037 3008 2970 2934 2913 2872 2852 2851 2829 2794 2759 2699 2684 2640 2584 2560 2521 2506 2491 2499 2502 2498 2528 2572 2618 2657 2690 2714 2742 2763 2768 2788 2801 2821 2838 2870 2893 2879 2845 2813 2786 2740 2683 2645 2592 2517 2469 2485 2532 2606 2655 2680 2705 2729 2760 2792 2795 2799 2827 2826 2838 2857 2866 2898 2896 2917 2988 3058 3109 3145 3145 3107 3110 3124 3196 3287 3340 3300 3249 3231 3229 3199 3194 3179 3127 3087 3036 2999 2944 2892 2846 2809 2779 2754 2734 2718 2703 2689 2677 2665 2654 2644 2634 2625 2617 2609 2602 2596 2590 2584 2579 2575 2571 2567 2563 2560 2557 2554 2552 2550 2548 2546 2544 2543 2542 2540 2539 2539 2538 2538 2537 2537
3112 3112 3111 3110 3109 3107 3104 3102 3098 3094 3089 3083 3076 3069 3060 3050 3038 3025 3010 2993 2973 2952 2928 2903 2877 2853 2838 2841 2875 2907 2909 2906 2932 2967 2996 3044 3177 3300 3318 3318 3268 3264 3209 3159 3124 3096 3093 3131 3157 3148 3073 3034 2996 2972 2956 2912 2861 2831 2808 2772 2737 2712 2675 2636 2580 2553 2528 2521 2513 2521 2528 2529 2558 2599 2636 2668 2700 2741 2765 2785 2805 2820 2833 2844 2872 2907 2918 2919 2871 2832 2799 2756 2699 2642 2588 2533 2482 2486 2519 2565 2636 2681 2706 2731 2763 2790 2816 2839 2826 2841 2850 2865 2877 2873 2890 2912 2942 2961 3027 3105 3167 3163 3141 3142 3149 3218 3266 3254 3236 3207 3180 3180 3168 3170 3151 3125 3082 3047 3008 2948 2897 2855 2819 2789 2765 2744 2726 2711 2697 2684 2672 2662 2651 2642 2633 2625 2617 2610 2604 2598 2592 2587 2583 2579 2575 2571 2568 2565 2562 2560 2557 2555 2553 2552 2550 2549 2548 2547 2546 2545 2545 2545 2544
3120 3120 3120 3119 3117 3115 3113 3111 3107 3103 3099 3093 3087 3079 3071 3061 3050 3037 3022 3005 2986 2965 2943 2919 2896 2878 2871 2886 2919 2936 2929 2924 2971 2997 3030 3060 3113 3279 3255 3243 3180 3173 3172 3140 3087 3051 3029 3038 3067 3079 3080 3069 3042 3014 2965 2911 2851 2817 2776 2727 2686 2640 2609 2585 2567 2546 2534 2526 2535 2539 2552 2578 2620 2655 2683 2717 2755 2783 2802 2824 2851 2874 2877 2894 2926 2936 2931 2877 2853 2816 2777 2724 2662 2610 2544 2506 2493 2507 2536 2597 2658 2707 2734 2757 2792 2799 2815 2855 2867 2852 2866 2873 2877 2887 2914 2919 2954 2984 3016 3051 3138 3206 3173 3176 3184 3245 3207 3195 3202 3172 3148 3135 3114 3118 3102 3091 3062 3034 3005 2936 2896 2857 2824 2795 2771 2751 2733 2717 2703 2691 2679 2668 2658 2649 2640 2632 2625 2618 2611 2606 2600 2595 2591 2586 2582 2579 2575 2572 2570 2567 2565 2563 2561 2559 2558 2556 2555 2554 2553 2553 2552 2552 2552
3129 3129 3128 3127 3126 3124 3122 3120 3117 3114 3109 3104 3098 3091 3083 3074 3063 3051 3036 3020 3002 2982 2959 2936 2913 2893 2881 2912 2950 2953 2949 2947 3054 3040 3062 3079 3107 3182 3166 3152 3163 3096 3073 3069 3053 3021 2997 2974 2971 2985 3003 2990 2979 2982 2961 2898 2876 2820 2767 2698 2632 2589 2579 2573 2559 2556 2544 2547 2565 2571 2601 2639 2670 2693 2733 2770 2805 2817 2839 2863 2885 2907 2932 2963 2953 2939 2930 2872 2829 2790 2740 2675 2623 2575 2523 2494 2503 2525 2566 2607 2643 2695 2745 2772 2795 2816 2834 2859 2880 2880 2895 2894 2903 2915 2925 2937 2955 3002 3037 3046 3143 3240 3238 3227 3243 3218 3168 3165 3151 3146 3116 3107 3078 3058 3046 3044 3013 2999 2969 2933 2890 2854 2824 2797 2775 2755 2738 2722 2709 2696 2685 2674 2664 2655 2647 2639 2632 2625 2619 2613 2608 2603 2598 2594 2590 2586 2583 2580 2577 2574 2572 2570 2568 2566 2565 2563 2562 2561 2560 2560 2559 2559 2559
3137 3137 3137 3136 3135 3134 3132 3130 3128 3124 3121 3116 3111 3104 3097 3088 3078 3067 3053 3038 3020 3000 2978 2954 2930 2903 2883 2946 2962 2955 2961 2968 3077 3111 3096 3136 3177 3158 3135 3109 3084 3067 3055 3041 3027 3004 2985 2967 2937 2915 2896 2925 2918 2904 2894 2842 2807 2754 2709 2650 2618 2598 2589 2580 2572 2564 2554 2569 2583 2624 2666 2699 2721 2743 2784 2811 2850 2863 2879 2899 2918 2955 2997 2980 2961 2940 2900 2843 2807 2762 2693 2637 2587 2542 2508 2503 2518 2555 2607 2641 2674 2695 2745 2794 2821 2851 2879 2877 2893 2918 2906 2908 2915 2924 2937 2957 2979 3030 3059 3066 3104 3201 3324 3283 3247 3197 3153 3134 3118 3101 3065 3059 3022 3009 3003 2992 2970 2952 2939 2910 2877 2847 2820 2796 2775 2757 2740 2726 2712 2700 2689 2679 2670 2661 2653 2645 2638 2632 2625 2620 2614 2610 2605 2601 2597 2593 2590 2587 2584 2582 2579 2577 2575 2573 2572 2570 2569 2568 2567 2567 2566 2566 2566
3146 3146 3146 3145 3144 3143 3142 3141 3139 3136 3133 3129 3124 3119 3112 3104 3095 3085 3073 3058 3042 3022 2999 2975 2949 2935 2962 2986 2992 2985 2988 2995 3098 3162 3150 3202 3215 3163 3119 3100 3084 3068 3054 3040 3027 3009 2990 2969 2941 2917 2892 2862 2832 2812 2809 2790 2750 2698 2648 2626 2621 2611 2598 2587 2579 2569 2581 2597 2644 2690 2722 2747 2771 2791 2822 2851 2883 2910 2921 2949 2958 2982 2978 2955 2945 2936 2875 2831 2785 2732 2669 2608 2566 2521 2507 2514 2550 2590 2631 2688 2709 2739 2760 2788 2825 2879 2909 2911 2925 2946 2948 2938 2940 2950 2959 2984 3011 3059 3065 3081 3095 3232 3305 3229 3198 3173 3135 3078 3079 3043 3000 3013 2968 2955 2949 2956 2950 2933 2911 2887 2861 2836 2813 2792 2773 2757 2741 2728 2715 2704 2693 2684 2675 2666 2658 2651 2644 2638 2632 2626 2621 2616 2612 2608 2604 2600 2597 2594 2591 2588 2586 2584 2582 2580 2579 2577 2576 2575 2574 2574 2573 2573 2573
3155 3155 3154 3154 3154 3153 3153 3152 3150 3148 3146 3143 3139 3134 3128 3121 3114 3105 3094 3082 3067 3048 3024 2997 2975 2990 3002 3017 3029 3020 3012 3012 3120 3190 3263 3252 3251 3210 3127 3099 3087 3072 3057 3045 3028 3007 2984 2965 2939 2911 2884 2857 2822 2800 2764 2725 2688 2655 2644 2637 2627 2617 2602 2594 2592 2594 2616 2653 2714 2747 2762 2784 2804 2829 2857 2871 2908 2942 2946 2969 2994 2965 2955 2932 2921 2891 2846 2807 2763 2704 2637 2588 2546 2517 2523 2543 2583 2627 2668 2701 2739 2768 2797 2816 2838 2872 2888 2900 2944 2974 3023 2992 2982 2993 3008 3022 3043 3059 3085 3103 3106 3201 3265 3205 3171 3110 3080 3042 3015 2990 2967 2952 2951 2949 2933 2928 2908 2902 2885 2865 2844 2823 2804 2786 2770 2755 2741 2728 2717 2706 2697 2687 2679 2671 2663 2656 2650 2644 2638 2632 2627 2623 2618 2614 2610 2607 2604 2600 2598 2595 2593 2591 2589 2587 2585 2584 2583 2582 2581 2580 2580 2579 2579
3163 3163 3163 3164 3164 3164 3163 3163 3162 3161 3160 3157 3154 3150 3146 3140 3134 3126 3118 3108 3096 3081 3057 3018 3007 3023 3040 3050 3050 3044 3035 3049 3157 3284 3306 3290 3241 3176 3136 3108 3095 3083 3069 3060 3039 3014 2988 2962 2931 2903 2860 2822 2787 2761 2733 2700 2664 2659 2653 2645 2636 2625 2606 2604 2619 2643 2660 2721 2762 2788 2810 2825 2843 2862 2891 2918 2952 2988 2994 2997 2988 2972 2951 2899 2875 2846 2816 2784 2724 2658 2609 2576 2532 2530 2539 2575 2611 2655 2697 2734 2759 2791 2821 2842 2856 2871 2888 2902 2928 2980 3051 3053 3039 3045 3074 3081 3095 3134 3119 3132 3124 3193 3243 3181 3127 3085 3040 3019 3003 2982 2956 2948 2943 2930 2922 2905 2888 2875 2859 2842 2825 2809 2793 2778 2764 2751 2739 2728 2718 2708 2699 2691 2683 2675 2668 2661 2655 2649 2643 2638 2633 2629 2624 2620 2617 2613 2610 2607 2604 2602 2599 2597 2595 2593 2592 2591 2589 2588 2588 2587 2586 2586 2586
3172 3172 3172 3173 3173 3174 3174 3175 3175 3175 3174 3173 3171 3168 3164 3160 3155 3149 3142 3136 3130 3124 3108 3068 3041 3049 3055 3067 3063 3056 3057 3094 3165 3311 3338 3314 3251 3207 3168 3140 3125 3114 3095 3083 3064 3043 3015 2987 2934 2881 2860 2807 2761 2737 2707 2679 2676 2668 2662 2653 2644 2625 2612 2640 2668 2699 2713 2725 2778 2822 2834 2856 2882 2909 2933 2961 3001 3034 3032 3019 2997 2994 2925 2884 2847 2810 2777 2736 2673 2630 2590 2553 2534 2545 2567 2601 2642 2685 2730 2768 2787 2816 2834 2853 2865 2879 2894 2914 2935 2971 3017 3076 3126 3136 3138 3135 3137 3196 3175 3165 3176 3211 3197 3159 3096 3055 3023 3011 2976 2973 2932 2926 2917 2917 2904 2884 2864 2848 2834 2820 2806 2793 2781 2769 2758 2747 2737 2727 2718 2709 2701 2693 2686 2679 2672 2666 2660 2654 2649 2644 2639 2635 2630 2626 2623 2619 2616 2613 2610 2608 2606 2604 2602 2600 2598 2597 2596 2595 2594 2593 2593 2592 2592
3180 3181 3181 3182 3183 3184 3185 3187 3188 3188 3189 3189 3188 3186 3184 3181 3176 3172 3168 3164 3164 3173 3208 3128 3066 3073 3079 3080 3071 3072 3087 3140 3216 3309 3355 3300 3260 3233 3191 3164 3157 3152 3142 3139 3102 3078 3051 3021 2972 2915 2860 2806 2755 2702 2696 2692 2686 2679 2671 2660 2641 2637 2656 2695 2710 2732 2757 2766 2779 2847 2873 2902 2943 2970 2998 3021 3054 3028 3016 3006 3021 2978 2924 2898 2860 2819 2759 2704 2652 2611 2573 2547 2545 2567 2590 2626 2671 2713 2754 2798 2811 2834 2867 2861 2871 2888 2913 2916 2942 2960 2988 3058 3079 3133 3202 3204 3211 3269 3262 3262 3193 3156 3145 3117 3085 3050 3024 2994 2985 2953 2930 2921 2914 2903 2879 2856 2836 2820 2807 2796 2786 2777 2768 2760 2751 2742 2734 2726 2718 2710 2703 2695 2689 2682 2676 2670 2664 2659 2654 2649 2644 2640 2636 2632 2629 2625 2622 2619 2617 2614 2612 2610 2608 2606 2605 2603 2602 2601 2600 2599 2599 2599 2598
3188 3189 3190 3191 3192 3194 3196 3199 3201 3203 3205 3206 3206 3206 3205 3202 3199 3195 3192 3190 3191 3196 3182 3133 3093 3085 3096 3100 3100 3104 3116 3179 3300 3375 3393 3322 3289 3257 3218 3193 3194 3193 3195 3194 3169 3172 3137 3061 2984 2934 2855 2809 2745 2707 2706 2701 2696 2689 2679 2657 2655 2685 2720 2731 2741 2771 2799 2843 2851 2875 2903 2960 2990 3042 3072 3095 3072 3023 3003 2999 2990 2960 2929 2900 2857 2798 2752 2689 2640 2600 2568 2550 2555 2584 2618 2642 2678 2736 2774 2822 2833 2857 2891 2890 2887 2901 2917 2914 2961 2982 2996 3023 3066 3078 3134 3254 3330 3362 3336 3242 3176 3137 3103 3096 3075 3041 3002 2977 2954 2929 2912 2891 2883 2878 2855 2825 2802 2787 2777 2771 2765 2761 2755 2750 2744 2737 2730 2724 2717 2710 2704 2697 2691 2685 2679 2674 2668 2663 2659 2654 2649 2645 2641 2638 2634 2631 2628 2625 2622 2620 2618 2616 2614 2612 2611 2609 2608 2607 2606 2606 2605 2605 2604
3196 3196 3198 3199 3202 3204 3207 3211 3214 3217 3221 3223 3226 3227 3226 3225 3223 3219 3215 3211 3213 3220 3217 3155 3107 3098 3106 3120 3131 3134 3145 3238 3325 3446 3434 3375 3318 3285 3254 3236 3233 3261 3250 3165 3128 3140 3083 3033 2987 2919 2843 2788 2730 2717 2714 2709 2705 2699 2680 2674 2711 2736 2753 2775 2801 2825 2853 2900 2909 2939 2940 2993 3018 3085 3103 3098 3062 3015 2998 2982 2964 2938 2914 2894 2850 2786 2728 2681 2634 2593 2569 2556 2567 2605 2650 2673 2697 2722 2784 2827 2848 2883 2916 2909 2903 2916 2934 2947 3005 3006 3021 3033 3061 3086 3111 3165 3244 3346 3341 3253 3176 3138 3104 3053 3036 3014 2987 2970 2956 2909 2880 2861 2864 2847 2822 2778 2760 2748 2743 2743 2744 2744 2743 2740 2736 2732 2727 2722 2716 2711 2705 2699 2694 2688 2683 2677 2672 2668 2663 2659 2654 2650 2647 2643 2640 2637 2634 2631 2628 2626 2624 2622 2620 2618 2617 2615 2614 2613 2612 2612 2611 2611 2610
3203 3204 3205 3207 3210 3214 3218 3222 3227 3232 3237 3242 3246 3249 3250 3250 3248 3244 3238 3228 3223 3238 3275 3229 3136 3140 3145 3152 3151 3149 3196 3288 3338 3475 3467 3429 3392 3315 3279 3265 3301 3239 3175 3105 3083 3073 3051 3008 2950 2885 2825 2762 2726 2725 2720 2716 2714 2707 2695 2711 2749 2789 2803 2813 2850 2886 2913 2957 2964 2967 2991 3035 3056 3104 3057 3056 3053 3021 2991 2968 2943 2925 2892 2864 2817 2762 2710 2666 2621 2583 2567 2567 2579 2626 2675 2707 2731 2753 2776 2834 2874 2894 2942 2922 2928 2934 2956 2979 2986 3021 3041 3047 3065 3098 3123 3158 3206 3275 3358 3289 3198 3136 3080 3028 2989 2970 2952 2941 2915 2898 2854 2834 2813 2797 2769 2742 2711 2698 2703 2714 2723 2728 2731 2731 2730 2727 2724 2720 2716 2711 2706 2701 2696 2691 2686 2681 2676 2672 2667 2663 2659 2655 2652 2648 2645 2642 2639 2636 2634 2631 2629 2627 2625 2624 2622 2621 2620 2619 2618 2617 2617 2616 2616
3209 3210 3212 3214 3218 3222 3228 3234 3240 3247 3255 3262 3268 3272 3275 3276 3275 3271 3265 3258 3245 3257 3327 3258 3176 3170 3177 3173 3160 3173 3224 3303 3392 3516 3478 3455 3395 3348 3315 3281 3215 3180 3111 3064 3035 3003 2992 2964 2930 2876 2814 2740 2733 2731 2729 2727 2719 2711 2732 2775 2781 2811 2830 2846 2902 2959 2994 3044 3025 3011 3031 3076 3117 3106 3058 3044 3032 3014 2982 2969 2948 2926 2879 2832 2789 2731 2690 2650 2611 2584 2572 2586 2604 2655 2702 2743 2768 2795 2804 2834 2874 2902 2945 2970 2972 2962 2991 2998 3011 3035 3055 3062 3078 3119 3140 3172 3216 3289 3301 3255 3190 3119 3080 3020 2972 2922 2917 2894 2885 2861 2830 2801 2764 2745 2726 2698 2650 2635 2655 2686 2704 2715 2721 2724 2724 2723 2721 2719 2715 2711 2707 2702 2698 2693 2689 2684 2680 2676 2672 2668 2664 2660 2657 2653 2650 2647 2644 2642 2639 2637 2635 2633 2631 2629 2628 2627 2625 2624 2624 2623 2623 2622 2622
3214 3215 3217 3221 3225 3230 3237 3244 3253 3262 3272 3282 3291 3298 3303 3306 3306 3303 3297 3286 3275 3307 3329 3252 3201 3185 3191 3188 3186 3223 3295 3367 3427 3459 3434 3413 3344 3296 3255 3211 3183 3143 3094 3039 2987 2964 2945 2922 2888 2844 2783 2740 2742 2740 2738 2734 2724 2724 2755 2804 2829 2847 2867 2899 2940 2997 3076 3098 3066 3064 3083 3127 3158 3097 3058 3053 3028 2994 2983 2962 2944 2912 2867 2829 2775 2717 2673 2635 2603 2584 2588 2613 2644 2681 2728 2762 2798 2815 2831 2859 2877 2904 2936 2974 2994 3024 3023 3027 3032 3054 3076 3082 3098 3141 3167 3198 3252 3278 3225 3181 3138 3085 3041 2997 2969 2928 2891 2868 2859 2819 2790 2756 2726 2690 2673 2658 2627 2593 2627 2668 2691 2705 2713 2718 2720 2720 2720 2718 2715 2712 2708 2704 2700 2696 2692 2688 2684 2680 2676 2672 2668 2665 2661 2658 2655 2652 2649 2647 2644 2642 2640 2638 2636 2635 2633 2632 2631 2630 2629 2629 2628 2628 2628
3218 3220 3222 3226 3231 3237 3245 3254 3265 3277 3289 3303 3316 3327 3335 3339 3340 3340 3326 3323 3346 3419 3376 3329 3241 3202 3202 3206 3217 3284 3349 3386 3406 3402 3393 3376 3330 3278 3230 3197 3170 3126 3081 3036 2987 2937 2920 2893 2864 2816 2753 2752 2752 2751 2747 2740 2727 2746 2798 2841 2871 2891 2915 2950 2981 3008 3042 3097 3086 3111 3135 3178 3128 3108 3077 3049 2999 2969 2950 2931 2915 2888 2854 2810 2765 2720 2666 2628 2610 2599 2601 2624 2656 2685 2720 2761 2807 2836 2857 2871 2877 2902 2932 2972 2986 3022 3094 3116 3111 3094 3102 3117 3135 3177 3202 3221 3267 3244 3182 3160 3116 3082 3052 3010 2965 2908 2874 2833 2817 2785 2750 2724 2700 2672 2650 2633 2593 2599 2633 2663 2684 2699 2708 2714 2717 2719 2719 2717 2715 2713 2709 2706 2702 2699 2695 2691 2687 2683 2680 2676 2672 2669 2666 2663 2660 2657 2654 2652 2649 2647 2645 2643 2642 2640 2639 2637 2636 2635 2635 2634 2633 2633 2633
3221 3222 3225 3229 3235 3242 3251 3262 3275 3290 3306 3324 3342 3359 3370 3376 3382 3359 3350 3379 3464 3450 3379 3318 3277 3246 3241 3234 3279 3347 3394 3353 3344 3348 3345 3336 3326 3281 3240 3196 3154 3119 3084 3039 3002 2958 2919 2875 2843 2780 2758 2762 2762 2760 2756 2745 2739 2790 2825 2867 2898 2931 2955 2985 3012 3036 3063 3082 3121 3182 3206 3171 3139 3115 3086 3043 3018 2961 2935 2913 2911 2883 2848 2807 2758 2707 2659 2628 2609 2615 2626 2632 2675 2702 2736 2776 2824 2853 2865 2886 2893 2906 2930 2953 2983 3011 3030 3081 3139 3169 3141 3158 3175 3202 3222 3240 3273 3193 3160 3115 3100 3077 3041 3011 2955 2925 2866 2814 2781 2748 2719 2699 2675 2650 2630 2604 2592 2616 2642 2665 2684 2698 2707 2713 2717 2718 2719 2718 2716 2714 2711 2708 2705 2701 2698 2694 2690 2687 2683 2680 2677 2673 2670 2667 2664 2662 2659 2657 2654 2652 2650 2648 2647 2645 2644 2643 2642 2641 2640 2639 2639 2638 2638
3222 3224 3227 3231 3238 3246 3256 3268 3283 3300 3321 3344 3370 3396 3413 3418 3397 3383 3393 3451 3502 3448 3388 3343 3313 3289 3279 3289 3343 3358 3334 3304 3292 3292 3293 3288 3279 3272 3275 3215 3151 3110 3076 3034 3003 2960 2897 2868 2832 2789 2769 2771 2772 2772 2764 2754 2766 2811 2848 2895 2930 2963 2999 3033 3053 3078 3101 3112 3145 3206 3193 3166 3143 3112 3100 3029 2983 2953 2937 2923 2911 2877 2857 2819 2751 2697 2655 2628 2615 2633 2647 2651 2684 2714 2739 2770 2825 2870 2881 2893 2911 2933 2933 2956 2978 3020 3022 3058 3090 3142 3174 3195 3219 3239 3252 3270 3213 3175 3137 3100 3069 3046 3014 2960 2941 2905 2855 2803 2768 2713 2691 2674 2644 2617 2591 2590 2607 2630 2652 2672 2688 2700 2708 2714 2717 2719 2720 2719 2718 2716 2713 2710 2707 2704 2701 2697 2694 2690 2687 2684 2681 2678 2674 2672 2669 2666 2664 2661 2659 2657 2655 2653 2652 2650 2649 2648 2647 2646 2645 2644 2644 2644 2643
3222 3224 3227 3232 3238 3247 3258 3271 3288 3308 3331 3360 3396 3440 3477 3449 3422 3418 3439 3524 3538 3484 3407 3368 3341 3318 3313 3335 3312 3291 3278 3258 3247 3241 3242 3240 3238 3227 3207 3262 3201 3137 3098 3047 3004 2966 2923 2880 2839 2774 2779 2784 2788 2784 2775 2771 2793 2833 2859 2924 2981 3025 3054 3073 3093 3117 3129 3148 3207 3167 3156 3143 3128 3079 3066 3054 3022 2954 2948 2930 2895 2873 2866 2799 2736 2690 2649 2627 2622 2643 2668 2671 2689 2714 2741 2769 2824 2867 2891 2905 2946 2951 2957 2966 2991 3011 3027 3039 3055 3079 3118 3157 3233 3310 3335 3302 3203 3152 3123 3098 3053 3007 2961 2922 2892 2860 2830 2783 2728 2694 2666 2650 2619 2583 2561 2583 2615 2642 2664 2682 2695 2705 2712 2717 2720 2721 2722 2721 2720 2718 2716 2713 2710 2707 2704 2701 2697 2694 2691 2688 2685 2682 2679 2676 2673 2671 2668 2666 2664 2662 2660 2658 2657 2655 2654 2653 2652 2651 2650 2649 2649 2649 2648
3221 3222 3225 3230 3237 3246 3257 3271 3289 3310 3335 3367 3411 3478 3530 3522 3502 3494 3540 3639 3592 3497 3436 3394 3370 3362 3341 3304 3279 3254 3224 3209 3207 3201 3195 3191 3187 3176 3156 3149 3156 3131 3104 3067 3044 3019 2970 2917 2851 2794 2806 2804 2804 2798 2785 2788 2818 2844 2879 2926 2985 3055 3085 3103 3126 3145 3161 3193 3223 3154 3142 3113 3088 3058 3041 3032 3004 2973 2947 2930 2903 2885 2853 2784 2727 2680 2647 2631 2633 2651 2679 2693 2709 2728 2761 2793 2842 2871 2900 2941 2974 2976 2979 2985 2995 3009 3038 3057 3072 3087 3114 3141 3184 3228 3267 3278 3201 3160 3152 3095 3040 2979 2939 2902 2870 2850 2804 2746 2696 2669 2649 2618 2587 2566 2560 2572 2626 2659 2681 2695 2705 2713 2718 2721 2723 2724 2724 2724 2722 2720 2718 2716 2713 2710 2707 2704 2701 2698 2695 2691 2688 2686 2683 2680 2677 2675 2673 2670 2668 2666 2664 2663 2661 2660 2658 2657 2656 2655 2655 2654 2654 2653 2653
3217 3219 3222 3227 3233 3242 3253 3267 3285 3307 3333 3362 3380 3461 3459 3479 3502 3605 3665 3683 3603 3524 3462 3411 3365 3345 3317 3283 3249 3218 3174 3165 3158 3166 3167 3163 3150 3125 3115 3089 3073 3075 3063 3031 3012 2982 2947 2907 2865 2825 2822 2819 2819 2814 2804 2809 2831 2879 2902 2950 3020 3098 3121 3137 3166 3181 3200 3252 3241 3196 3116 3058 3056 3049 3040 3008 2972 2958 2945 2927 2913 2887 2834 2769 2710 2670 2655 2643 2648 2657 2686 2715 2723 2742 2773 2814 2858 2882 2915 2956 2983 2986 2995 3003 3006 3014 3039 3064 3084 3100 3120 3160 3180 3223 3257 3240 3204 3180 3126 3072 3032 2967 2923 2885 2856 2816 2766 2715 2681 2646 2612 2588 2575 2570 2593 2622 2643 2685 2704 2713 2719 2722 2725 2727 2728 2728 2728 2727 2725 2723 2721 2719 2716 2713 2710 2707 2704 2701 2698 2695 2692 2690 2687 2684 2682 2679 2677 2675 2673 2671 2669 2667 2666 2664 2663 2662 2661 2660 2659 2659 2658 2658 2658
3213 3214 3217 3221 3227 3235 3245 3259 3277 3299 3325 3354 3387 3440 3434 3453 3461 3565 3680 3661 3580 3502 3438 3399 3361 3326 3293 3271 3236 3197 3161 3156 3145 3131 3126 3126 3116 3092 3087 3065 3028 3027 3030 3012 2979 2955 2919 2890 2843 2841 2832 2830 2828 2825 2819 2826 2872 2904 2943 2976 3063 3156 3201 3224 3242 3249 3263 3276 3254 3212 3107 3055 3035 3036 3026 2993 2962 2939 2932 2918 2899 2863 2804 2753 2695 2669 2659 2650 2653 2664 2692 2728 2769 2765 2806 2836 2887 2900 2896 2951 2990 3000 3010 3017 3019 3021 3037 3065 3094 3116 3134 3154 3187 3230 3278 3194 3132 3097 3096 3068 3029 2988 2933 2885 2842 2785 2733 2685 2649 2616 2595 2583 2583 2599 2621 2670 2704 2734 2736 2734 2733 2734 2734 2734 2734 2733 2732 2730 2729 2727 2724 2722 2719 2716 2713 2710 2708 2705 2702 2699 2696 2693 2691 2688 2686 2683 2681 2679 2677 2675 2673 2672 2670 2669 2668 2666 2666 2665 2664 2663 2663 2663 2663
3207 3208 3210 3213 3218 3225 3234 3247 3264 3285 3311 3342 3375 3405 3418 3431 3435 3527 3663 3678 3603 3524 3448 3392 3357 3322 3281 3252 3234 3188 3157 3146 3127 3114 3099 3089 3085 3069 3049 3019 2992 2985 2989 2970 2941 2916 2879 2865 2862 2850 2841 2837 2834 2830 2831 2851 2892 2927 2974 3010 3084 3185 3258 3248 3247 3250 3263 3217 3201 3195 3144 3067 3026 3020 3011 2991 2961 2923 2907 2890 2875 2836 2788 2727 2684 2668 2659 2654 2663 2683 2703 2742 2781 2813 2824 2870 2892 2896 2911 2965 2995 3009 3020 3024 3029 3034 3043 3076 3106 3131 3148 3169 3196 3257 3228 3154 3091 3067 3049 3025 3008 2960 2916 2862 2807 2752 2707 2666 2631 2607 2593 2594 2618 2644 2693 2755 2780 2818 2769 2755 2748 2745 2743 2741 2740 2738 2736 2734 2732 2730 2728 2725 2722 2719 2717 2714 2711 2708 2705 2702 2700 2697 2695 2692 2690 2687 2685 2683 2681 2679 2678 2676 2675 2673 2672 2671 2670 2669 2668 2668 2667 2667 2667
3199 3200 3202 3204 3208 3213 3220 3230 3244 3265 3292 3323 3355 3383 3401 3421 3432 3504 3634 3686 3649 3572 3464 3423 3364 3303 3267 3237 3222 3197 3160 3124 3111 3101 3090 3070 3057 3028 3010 2992 2957 2943 2932 2924 2903 2886 2883 2877 2866 2855 2849 2843 2837 2834 2853 2884 2914 2951 3009 3041 3106 3192 3260 3232 3222 3237 3191 3172 3165 3148 3130 3061 3024 3011 2999 2984 2967 2926 2912 2882 2842 2792 2750 2705 2682 2666 2663 2662 2680 2699 2728 2754 2803 2837 2854 2894 2902 2899 2933 2984 2989 3016 3035 3040 3045 3050 3056 3098 3147 3153 3169 3193 3232 3161 3151 3132 3078 3035 3015 2984 2957 2912 2878 2836 2781 2723 2676 2645 2620 2609 2602 2621 2665 2718 2753 2823 2851 2816 2788 2771 2761 2755 2751 2748 2746 2743 2741 2739 2736 2734 2731 2728 2726 2723 2720 2717 2714 2712 2709 2706 2703 2701 2698 2696 2694 2691 2689 2687 2685 2683 2682 2680 2679 2677 2676 2675 2674 2673 2673 2672 2672 2671 2671
3191 3192 3193 3194 3196 3198 3201 3207 3217 3235 3264 3299 3335 3369 3395 3417 3436 3508 3623 3660 3619 3532 3439 3396 3370 3341 3269 3228 3205 3186 3165 3109 3097 3095 3086 3069 3055 3028 3000 2977 2954 2945 2936 2928 2914 2899 2890 2878 2870 2861 2855 2846 2840 2860 2896 2930 2961 2998 3045 3071 3154 3212 3234 3186 3191 3202 3152 3137 3128 3118 3084 3062 3033 3017 3001 2986 2956 2937 2922 2887 2838 2774 2725 2693 2677 2668 2668 2685 2690 2715 2748 2800 2842 2854 2877 2898 2898 2907 2966 3006 3001 3041 3058 3061 3064 3064 3067 3098 3226 3235 3248 3233 3179 3134 3110 3084 3052 3031 3001 2955 2914 2881 2857 2829 2764 2713 2668 2640 2625 2614 2626 2664 2723 2784 2833 2854 2839 2817 2797 2782 2772 2764 2759 2755 2751 2748 2746 2743 2740 2737 2735 2732 2729 2726 2723 2721 2718 2715 2712 2710 2707 2704 2702 2700 2697 2695 2693 2691 2689 2687 2686 2684 2683 2682 2680 2679 2678 2678 2677 2676 2676 2676 2676
3183 3183 3183 3183 3183 3182 3180 3178 3180 3190 3223 3275 3319 3352 3380 3414 3442 3518 3540 3615 3611 3519 3429 3385 3367 3346 3315 3259 3178 3169 3157 3124 3100 3087 3076 3068 3046 3012 2996 2981 2962 2945 2932 2922 2911 2901 2894 2883 2872 2867 2859 2854 2871 2901 2967 3008 3047 3051 3075 3099 3175 3251 3210 3167 3149 3157 3142 3118 3104 3090 3068 3055 3030 3031 3005 2982 2957 2939 2912 2859 2802 2747 2709 2685 2674 2684 2684 2692 2708 2734 2800 2827 2863 2872 2884 2888 2953 2972 3010 3022 3031 3060 3076 3079 3076 3075 3077 3117 3227 3330 3260 3216 3175 3138 3118 3091 3055 3021 2988 2944 2891 2877 2838 2792 2758 2704 2668 2642 2627 2629 2666 2717 2782 2848 2872 2851 2834 2817 2802 2789 2779 2772 2766 2761 2757 2753 2750 2747 2744 2741 2738 2735 2732 2730 2727 2724 2721 2718 2716 2713 2711 2708 2706 2703 2701 2699 2697 2695 2693 2691 2690 2688 2687 2686 2684 2683 2682 2682 2681 2680 2680 2680 2680
3174 3174 3173 3172 3170 3166 3160 3145 3100 3156 3182 3218 3263 3330 3366 3408 3444 3472 3500 3531 3572 3537 3442 3358 3350 3336 3313 3274 3206 3158 3147 3122 3110 3095 3067 3057 3042 3011 2990 2976 2958 2942 2932 2923 2913 2905 2896 2887 2877 2874 2876 2902 2922 2956 3027 3069 3121 3098 3106 3126 3183 3204 3198 3159 3149 3145 3142 3122 3091 3067 3050 3040 3027 3014 2987 2971 2962 2926 2880 2819 2768 2728 2701 2685 2690 2703 2697 2708 2727 2769 2799 2830 2853 2869 2874 2908 2969 3003 3030 3039 3048 3071 3088 3091 3088 3093 3095 3139 3221 3310 3277 3231 3189 3158 3131 3101 3073 3025 2961 2946 2928 2896 2848 2796 2748 2711 2675 2644 2638 2650 2712 2782 2843 2871 2861 2845 2831 2818 2805 2794 2785 2778 2772 2766 2762 2758 2754 2751 2748 2745 2742 2739 2736 2733 2730 2727 2724 2722 2719 2716 2714 2711 2709 2707 2705 2702 2700 2699 2697 2695 2693 2692 2691 2689 2688 2687 2686 2686 2685 2684 2684 2684 2684
3166 3165 3164 3162 3158 3153 3143 3128 3106 3099 3129 3157 3225 3276 3326 3396 3434 3460 3478 3496 3509 3481 3389 3337 3326 3323 3307 3273 3227 3178 3142 3121 3120 3105 3063 3045 3035 3016 2998 2977 2959 2944 2935 2925 2915 2907 2897 2891 2893 2905 2931 2951 2981 3035 3098 3155 3173 3153 3138 3162 3172 3178 3163 3142 3154 3142 3138 3113 3079 3060 3049 3032 3033 3008 2996 2970 2921 2876 2832 2782 2743 2710 2699 2710 2712 2719 2707 2731 2753 2786 2808 2839 2865 2895 2905 2951 3013 3035 3049 3048 3070 3098 3106 3102 3100 3107 3116 3137 3261 3334 3320 3272 3226 3199 3169 3132 3074 3023 2983 2948 2927 2887 2826 2785 2758 2729 2699 2669 2656 2698 2757 2835 2866 2857 2849 2839 2828 2817 2807 2798 2790 2783 2777 2771 2767 2762 2759 2755 2752 2748 2745 2742 2739 2736 2733 2731 2728 2725 2722 2720 2717 2715 2713 2710 2708 2706 2704 2702 2700 2699 2697 2696 2694 2693 2692 2691 2690 2689 2689 2688 2688 2688 2687
3157 3157 3155 3152 3148 3142 3133 3120 3103 3084 3065 3087 3143 3203 3297 3354 3398 3438 3457 3470 3461 3405 3362 3334 3309 3310 3298 3281 3253 3213 3154 3126 3131 3114 3057 3039 3037 3027 3012 2989 2973 2957 2944 2932 2916 2908 2918 2921 2939 2956 2979 3007 3053 3114 3159 3190 3212 3186 3152 3138 3139 3126 3100 3089 3101 3131 3129 3086 3048 3028 3018 3001 2990 2985 2955 2921 2886 2842 2794 2759 2733 2706 2712 2725 2727 2732 2722 2749 2788 2816 2827 2843 2881 2929 2956 3003 3043 3059 3062 3079 3107 3119 3122 3114 3107 3115 3128 3145 3184 3244 3335 3305 3264 3229 3196 3123 3047 2984 2949 2924 2895 2860 2828 2801 2778 2753 2731 2714 2712 2737 2791 2835 2844 2843 2839 2833 2825 2817 2808 2800 2793 2787 2781 2776 2771 2767 2763 2759 2755 2752 2749 2746 2743 2740 2737 2734 2731 2728 2726 2723 2721 2718 2716 2714 2712 2709 2708 2706 2704 2702 2701 2699 2698 2697 2696 2695 2694 2693 2693 2692 2692 2691 2691
3150 3149 3147 3144 3140 3134 3126 3115 3100 3080 3048 3065 3099 3229 3308 3345 3388 3399 3427 3445 3427 3434 3359 3335 3318 3304 3288 3273 3257 3229 3197 3161 3144 3125 3079 3050 3044 3038 3024 2994 2983 2974 2963 2955 2951 2970 2974 2992 3010 3020 3039 3067 3106 3182 3198 3160 3134 3113 3103 3097 3095 3075 3026 3040 3035 3101 3102 3051 3012 2988 2980 2969 2967 2943 2927 2887 2847 2806 2769 2741 2732 2715 2723 2738 2741 2744 2745 2774 2816 2848 2862 2865 2908 2969 3011 3054 3080 3083 3104 3111 3123 3131 3132 3125 3125 3128 3139 3158 3189 3234 3370 3340 3306 3305 3236 3125 3053 2985 2969 2953 2915 2875 2847 2822 2799 2779 2762 2753 2755 2772 2800 2822 2831 2834 2832 2828 2822 2816 2809 2802 2796 2790 2784 2779 2775 2770 2766 2762 2759 2755 2752 2749 2746 2743 2740 2737 2734 2732 2729 2726 2724 2722 2719 2717 2715 2713 2711 2709 2707 2706 2704 2703 2702 2700 2699 2698 2697 2697 2696 2696 2695 2695 2695
3143 3142 3140 3137 3133 3128 3121 3112 3102 3090 3077 3066 3130 3293 3354 3414 3371 3374 3382 3414 3428 3491 3384 3344 3330 3310 3287 3265 3251 3228 3204 3172 3144 3129 3096 3059 3049 3046 3031 3000 3002 3000 3003 3016 3020 3021 3034 3051 3071 3090 3109 3154 3205 3220 3168 3120 3086 3060 3031 3023 3025 3029 3004 2972 2966 2998 3061 3038 2986 2961 2949 2929 2923 2904 2881 2850 2808 2778 2746 2734 2734 2740 2733 2749 2755 2763 2771 2798 2839 2863 2888 2902 2950 3006 3055 3083 3097 3110 3165 3135 3140 3142 3142 3141 3145 3148 3155 3166 3204 3287 3339 3377 3343 3289 3200 3118 3061 3026 3002 2976 2932 2895 2867 2842 2821 2803 2790 2783 2784 2793 2806 2818 2826 2828 2828 2825 2821 2816 2810 2804 2798 2793 2788 2783 2778 2774 2770 2766 2762 2759 2755 2752 2749 2746 2743 2740 2737 2735 2732 2730 2727 2725 2722 2720 2718 2716 2714 2712 2711 2709 2708 2706 2705 2704 2703 2702 2701 2700 2700 2699 2699 2698 2698
3137 3136 3134 3131 3128 3123 3118 3112 3106 3103 3106 3130 3208 3337 3377 3350 3340 3350 3346 3366 3396 3407 3481 3393 3360 3338 3299 3270 3245 3225 3202 3174 3160 3149 3123 3095 3081 3077 3068 3052 3060 3048 3053 3060 3059 3072 3103 3118 3149 3164 3209 3227 3221 3156 3127 3091 3056 3033 2976 2960 2953 2937 2950 2919 2914 2944 3012 3000 2961 2945 2928 2896 2882 2865 2841 2808 2777 2756 2738 2734 2735 2747 2738 2762 2770 2780 2802 2833 2859 2877 2901 2951 3012 3061 3091 3110 3116 3130 3150 3155 3159 3160 3156 3157 3156 3161 3169 3183 3235 3331 3368 3355 3288 3244 3218 3127 3085 3059 3025 2982 2944 2912 2884 2861 2841 2825 2813 2806 2805 2808 2814 2820 2825 2826 2826 2824 2820 2816 2811 2806 2801 2795 2791 2786 2781 2777 2773 2769 2766 2762 2759 2755 2752 2749 2746 2743 2740 2738 2735 2733 2730 2728 2726 2723 2721 2719 2717 2716 2714 2712 2711 2709 2708 2707 2706 2705 2704 2704 2703 2702 2702 2702 2702
3131 3130 3129 3126 3123 3120 3115 3111 3109 3110 3121 3151 3210 3278 3359 3291 3298 3312 3312 3307 3347 3369 3472 3394 3365 3288 3264 3285 3249 3235 3210 3200 3200 3209 3216 3209 3171 3141 3112 3107 3082 3083 3086 3093 3113 3154 3161 3138 3158 3174 3187 3136 3157 3119 3061 3039 3043 2997 2935 2916 2894 2872 2862 2855 2864 2942 2971 2974 2946 2922 2898 2882 2851 2841 2809 2770 2762 2744 2738 2743 2741 2749 2762 2775 2785 2803 2840 2852 2875 2892 2918 2984 3087 3134 3118 3132 3143 3154 3161 3191 3188 3189 3180 3173 3172 3172 3183 3204 3250 3342 3294 3258 3250 3224 3202 3184 3147 3074 3026 2987 2954 2924 2899 2877 2858 2843 2832 2824 2821 2821 2822 2825 2826 2827 2826 2824 2820 2817 2812 2807 2803 2798 2793 2789 2784 2780 2776 2772 2769 2765 2762 2758 2755 2752 2749 2746 2743 2741 2738 2736 2733 2731 2729 2726 2724 2722 2721 2719 2717 2715 2714 2713 2711 2710 2709 2708 2708 2707 2706 2706 2705 2705 2705
3126 3125 3124 3122 3119 3116 3113 3110 3108 3109 3116 3134 3177 3242 3296 3251 3265 3276 3280 3275 3290 3328 3414 3359 3315 3273 3208 3188 3193 3191 3203 3228 3178 3153 3135 3165 3155 3112 3129 3104 3104 3111 3118 3136 3190 3218 3129 3092 3067 3106 3133 3085 3088 3086 3033 3000 3004 2937 2920 2885 2843 2824 2802 2793 2809 2905 2926 2930 2921 2910 2900 2858 2837 2818 2783 2758 2744 2744 2751 2753 2750 2755 2785 2798 2809 2836 2871 2885 2893 2907 2917 3027 3110 3158 3141 3152 3168 3179 3188 3204 3208 3205 3184 3195 3194 3196 3206 3225 3294 3228 3213 3190 3165 3145 3130 3120 3103 3063 3025 2991 2960 2934 2910 2890 2873 2859 2847 2839 2834 2832 2831 2830 2830 2829 2827 2825 2822 2818 2814 2809 2805 2800 2796 2791 2787 2783 2779 2775 2772 2768 2765 2761 2758 2755 2752 2749 2746 2744 2741 2739 2736 2734 2732 2729 2727 2725 2724 2722 2720 2719 2717 2716 2715 2713 2712 2711 2711 2710 2709 2709 2709 2708 2708
3121 3121 3119 3118 3115 3113 3110 3107 3104 3103 3101 3082 3122 3156 3244 3212 3235 3252 3257 3257 3267 3289 3314 3343 3281 3256 3167 3148 3114 3095 3081 3086 3106 3104 3104 3081 3119 3079 3088 3120 3139 3159 3164 3194 3204 3173 3107 3066 3040 3070 3102 3070 3047 3027 3002 2969 2976 2907 2880 2847 2818 2805 2783 2763 2770 2784 2871 2901 2903 2904 2870 2848 2826 2809 2784 2760 2742 2755 2763 2764 2765 2776 2807 2833 2831 2865 2890 2904 2915 2926 2947 3056 3091 3178 3172 3178 3190 3199 3207 3240 3231 3225 3215 3211 3214 3218 3227 3243 3217 3170 3141 3126 3108 3089 3077 3086 3073 3048 3019 2991 2965 2941 2920 2901 2885 2871 2860 2852 2845 2841 2838 2836 2834 2832 2830 2827 2823 2820 2816 2811 2807 2803 2798 2794 2790 2786 2782 2778 2775 2771 2768 2764 2761 2758 2755 2752 2749 2747 2744 2741 2739 2737 2734 2732 2730 2728 2726 2725 2723 2721 2720 2719 2718 2716 2715 2714 2714 2713 2712 2712 2712 2711 2711
3117 3117 3116 3114 3112 3109 3106 3103 3100 3096 3091 3083 3104 3088 3176 3166 3184 3219 3237 3236 3252 3276 3304 3285 3218 3199 3127 3103 3096 3063 3034 3020 3003 3003 3030 3030 3067 3030 3035 3036 3081 3119 3089 3128 3129 3127 3066 3054 3034 3026 3019 3013 3002 2990 2981 2936 2923 2886 2844 2819 2795 2780 2766 2733 2728 2733 2834 2864 2875 2857 2830 2821 2808 2805 2781 2768 2755 2759 2772 2781 2784 2793 2831 2855 2862 2879 2898 2915 2933 2954 2973 3093 3131 3187 3209 3203 3211 3222 3230 3283 3269 3268 3259 3249 3242 3238 3245 3276 3256 3183 3118 3096 3076 3056 3064 3064 3054 3035 3013 2990 2967 2946 2927 2910 2894 2881 2871 2862 2855 2849 2845 2842 2838 2835 2832 2829 2826 2822 2818 2814 2809 2805 2801 2797 2793 2789 2785 2781 2777 2774 2770 2767 2764 2761 2758 2755 2752 2749 2747 2744 2742 2739 2737 2735 2733 2731 2729 2728 2726 2724 2723 2722 2720 2719 2718 2717 2717 2716 2715 2715 2714 2714 2714
3113 3113 3112 3110 3108 3106 3103 3100 3096 3091 3086 3079 3067 3040 3103 3111 3121 3171 3203 3206 3208 3239 3278 3267 3194 3151 3099 3069 3050 3034 3015 2989 2973 2947 2941 2969 3004 2981 2954 2957 3000 3057 3041 3055 3064 3092 3030 3019 3025 3006 2970 2942 2942 2932 2918 2924 2895 2870 2836 2804 2767 2739 2732 2699 2672 2714 2771 2786 2818 2820 2800 2805 2776 2792 2774 2768 2772 2775 2787 2800 2817 2820 2834 2868 2890 2887 2905 2918 2944 2973 2996 3036 3152 3211 3233 3235 3235 3237 3252 3343 3311 3308 3311 3307 3278 3262 3263 3250 3176 3151 3118 3089 3070 3057 3056 3051 3041 3025 3007 2988 2968 2949 2932 2916 2902 2890 2879 2870 2863 2856 2851 2847 2843 2839 2836 2832 2828 2824 2820 2816 2812 2808 2803 2799 2795 2791 2787 2784 2780 2776 2773 2770 2766 2763 2760 2757 2755 2752 2749 2747 2744 2742 2740 2738 2736 2734 2732 2730 2729 2727 2726 2724 2723 2722 2721 2720 2719 2719 2718 2718 2717 2717 2717
3110 3109 3108 3107 3105 3103 3100 3097 3093 3088 3083 3075 3064 3046 3034 3061 3085 3119 3159 3172 3178 3197 3242 3252 3180 3131 3081 3050 3037 3023 3003 2973 2942 2914 2906 2909 2933 2918 2892 2902 2927 2964 2997 2992 2999 3016 2994 2999 3005 2995 2971 2944 2916 2885 2892 2851 2840 2852 2849 2807 2766 2715 2683 2643 2621 2676 2687 2718 2778 2795 2785 2764 2752 2772 2772 2776 2788 2795 2809 2825 2838 2841 2845 2875 2886 2896 2916 2928 2958 3008 3026 3053 3067 3163 3252 3264 3256 3263 3281 3380 3378 3418 3373 3317 3300 3293 3271 3203 3149 3116 3094 3078 3068 3059 3051 3043 3032 3018 3002 2985 2968 2952 2936 2922 2908 2897 2886 2877 2869 2863 2857 2852 2847 2843 2839 2835 2831 2827 2823 2818 2814 2810 2806 2802 2798 2794 2790 2786 2783 2779 2776 2772 2769 2766 2763 2760 2757 2754 2752 2749 2747 2745 2742 2740 2738 2736 2735 2733 2731 2730 2728 2727 2726 2725 2724 2723 2722 2721 2721 2720 2720 2720 2720
3107 3106 3105 3104 3102 3100 3098 3095 3091 3087 3082 3075 3068 3060 3058 3064 3080 3101 3121 3148 3165 3191 3233 3271 3182 3133 3078 3042 3024 3015 2993 2976 2930 2900 2898 2865 2866 2853 2839 2848 2858 2890 2898 2911 2932 2922 2947 2953 2952 2968 2957 2915 2882 2863 2858 2834 2814 2822 2819 2805 2783 2735 2663 2605 2588 2635 2668 2719 2771 2781 2760 2746 2746 2755 2774 2798 2813 2819 2833 2851 2865 2869 2859 2879 2894 2915 2929 2948 2979 3033 3064 3075 3089 3149 3241 3292 3288 3293 3323 3424 3494 3449 3384 3313 3304 3266 3245 3201 3152 3114 3097 3082 3068 3057 3047 3037 3025 3013 2998 2983 2968 2953 2939 2926 2914 2902 2892 2883 2875 2868 2862 2857 2852 2847 2842 2838 2834 2829 2825 2821 2817 2812 2808 2804 2800 2796 2792 2789 2785 2781 2778 2775 2771 2768 2765 2762 2760 2757 2754 2752 2749 2747 2745 2743 2741 2739 2737 2735 2734 2732 2731 2730 2728 2727 2726 2725 2725 2724 2723 2723 2723 2722 2722
3104 3103 3103 3101 3100 3098 3096 3093 3090 3086 3082 3078 3074 3071 3072 3076 3081 3102 3124 3144 3167 3201 3254 3216 3163 3124 3082 3040 3010 2985 2967 2949 2920 2876 2865 2832 2823 2804 2796 2784 2792 2809 2827 2839 2870 2873 2909 2908 2921 2935 2935 2910 2861 2842 2827 2814 2780 2775 2802 2756 2733 2715 2660 2578 2570 2607 2697 2747 2773 2762 2749 2749 2746 2760 2790 2822 2836 2851 2865 2873 2889 2892 2886 2886 2905 2945 2983 3017 3061 3079 3090 3087 3116 3150 3236 3295 3315 3323 3395 3464 3437 3369 3297 3256 3235 3240 3219 3202 3170 3141 3104 3083 3067 3055 3043 3032 3021 3008 2995 2982 2968 2954 2941 2929 2918 2907 2897 2888 2880 2873 2867 2861 2856 2850 2846 2841 2836 2832 2828 2823 2819 2815 2811 2807 2803 2799 2795 2791 2787 2784 2780 2777 2774 2771 2768 2765 2762 2759 2757 2754 2752 2749 2747 2745 2743 2741 2739 2738 2736 2735 2733 2732 2731 2730 2729 2728 2727 2726 2726 2725 2725 2725 2725
3101 3100 3100 3099 3098 3096 3094 3092 3089 3086 3083 3081 3079 3079 3081 3087 3097 3114 3136 3158 3190 3224 3276 3194 3139 3110 3078 3045 3011 2984 2956 2936 2924 2870 2814 2791 2780 2770 2753 2731 2727 2743 2760 2771 2812 2828 2853 2870 2902 2897 2900 2886 2813 2808 2807 2801 2759 2723 2710 2710 2690 2665 2626 2554 2552 2626 2722 2715 2743 2748 2745 2750 2755 2766 2800 2847 2885 2894 2901 2899 2916 2914 2909 2908 2937 3023 3092 3131 3153 3122 3118 3115 3142 3175 3237 3281 3327 3349 3405 3445 3392 3312 3237 3183 3164 3170 3211 3187 3164 3128 3100 3079 3064 3051 3039 3028 3016 3005 2992 2980 2968 2955 2943 2932 2921 2911 2901 2893 2885 2878 2871 2865 2859 2854 2849 2844 2839 2835 2830 2826 2821 2817 2813 2809 2805 2801 2797 2793 2790 2786 2783 2779 2776 2773 2770 2767 2764 2762 2759 2756 2754 2752 2750 2747 2745 2744 2742 2740 2738 2737 2736 2734 2733 2732 2731 2730 2729 2729 2728 2728 2727 2727 2727
